ncols         283
nrows         85
xllcorner     69.625
yllcorner     24.125
cellsize      0.25
NODATA_value  -9999
257 257 268 281 302 322 349 358 367 377 405 466 506 508 506 462 388 348 343 348 353 358 363 368 372 376 379 380 382 385 396 411 423 457 604 658 829 1065 1206 1308 1724 1908 2120 2663 2858 2782 2557 2362 2142 1706 1164 608 817 1234 1409 1178 914 735 569 450 322 285 290 303 318 325 334 364 415 445 478 520 583 659 719 748 765 923 1066 1174 1251 1267 1290 1502 2052 2156 1677 1294 1360 1478 1577 1596 1558 1585 1593 1660 1762 1983 2047 1382 1342 1538 1812 1927 1855 1860 1749 1889 2334 2664 2730 2741 2657 2545 2347 2262 2330 2140 1962 1782 1612 1520 1445 1376 1320 1309 1352 1388 1479 1525 1471 1382 1369 1373 1347 1321 1371 1304 1299 1401 1424 1348 1378 1368 1294 1257 1233 1250 1260 1196 1125 1096 1075 1103 1157 1118 1085 1037 1000 963 965 933 879 892 882 874 891 944 1011 1056 1041 1039 1073 1067 1102 1157 1230 1333 1402 1446 1440 1395 1324 1241 1074 955 888 894 962 951 871 912 926 887 893 920 933 986 1000 1069 1057 899 797 678 611 452 373 307 238 199 175 159 153 147 144 139 137 134 133 133 136 148 149 155 155 156 159 167 174 195 264 307 310 225 230 283 294 600 764 576 458 481 367 377 339 295 222 205 173 110 73 69 70 70 74 98 238 278 283 387 569 668 662 558 652 719 642 453 309 86 3 0 0 0 0 0 0 0 0 0 0 0 nan
229 223 230 242 271 280 280 306 313 309 319 359 421 488 527 506 436 369 346 350 356 361 366 372 377 383 388 392 395 406 434 463 480 509 631 766 1280 1960 2511 2766 2982 3176 3093 2766 2390 1971 1421 1121 941 815 661 457 244 328 393 374 343 305 291 293 293 302 311 322 335 342 354 377 409 438 464 494 543 616 674 674 580 669 840 961 1004 1000 1017 1088 1304 1542 1438 1152 1212 1287 1606 1441 1179 1490 1686 1823 1783 1691 1726 1497 1754 2377 2247 1846 1541 1334 1255 1184 1374 1683 1985 2355 2398 2522 2595 2388 2234 2110 1924 1887 1966 1961 2244 1925 1591 1488 1562 1792 1653 1432 1374 1382 1371 1324 1256 1251 1278 1200 1193 1257 1307 1307 1305 1267 1202 1210 1245 1262 1210 1149 1099 1084 1054 1069 1088 1081 1074 1058 1044 971 962 956 948 984 964 954 975 995 1040 1086 1076 1049 1114 1180 1187 1231 1296 1407 1431 1437 1377 1324 1240 1123 1007 916 869 886 1022 1011 971 959 965 951 969 1004 1016 1095 1097 1024 939 861 779 666 550 426 333 260 215 189 173 163 156 149 145 141 141 142 143 144 153 172 176 180 184 187 185 187 179 187 201 213 237 271 308 314 397 650 655 487 389 406 433 383 451 485 381 308 230 118 66 67 69 73 94 140 207 262 381 456 556 665 796 717 723 582 439 242 45 0 0 0 0 0 0 0 0 0 0 0 0 0 nan
223 240 257 273 276 279 279 285 299 303 299 309 329 426 504 518 459 417 389 367 362 367 372 379 387 396 403 406 412 450 522 609 673 744 907 1097 1540 2004 2568 2893 3051 3259 3161 3167 2979 2282 1978 1808 1237 732 394 284 238 238 232 275 307 321 330 324 326 337 346 351 352 359 366 376 390 408 424 441 477 549 605 608 534 512 570 612 635 598 614 769 894 857 831 904 979 987 891 724 597 650 780 926 963 951 1012 1240 1572 2167 2739 2455 1845 1543 1490 1330 1444 1527 1452 1522 1764 1957 2032 2165 2205 2038 1953 1855 1816 1748 1792 1843 1811 1851 1814 2035 2063 1733 1551 1467 1411 1287 1152 1122 1130 1113 1123 1156 1200 1253 1242 1222 1200 1203 1194 1182 1146 1091 1054 1075 1081 1086 1132 1143 1143 1171 1107 1041 995 934 893 961 1003 1007 1017 1009 1046 1096 1111 1132 1225 1272 1267 1255 1251 1302 1295 1300 1279 1196 1098 1034 986 946 921 919 981 1036 1042 995 1029 1058 1118 1117 1126 1186 1139 888 744 682 691 559 433 395 266 217 197 185 173 165 159 153 148 147 150 155 161 179 214 231 198 175 168 176 188 195 191 204 215 240 259 350 530 573 613 582 551 436 335 446 486 434 610 687 492 342 228 108 68 68 78 115 185 204 228 306 337 434 528 714 835 671 605 425 155 31 0 0 0 0 0 0 0 0 0 0 0 0 0 0 nan
303 333 341 345 345 339 328 316 309 307 310 315 325 341 370 445 516 566 545 486 434 404 394 400 411 431 442 432 446 569 704 865 978 939 1111 1419 1614 1822 2261 2471 2056 2131 2427 2412 2110 2064 2271 2314 1864 1415 826 537 489 777 1213 949 565 468 428 451 461 444 434 425 409 390 400 408 413 421 430 435 447 479 518 544 544 541 560 588 616 630 671 742 859 941 953 1022 1247 1353 1217 1046 911 822 744 681 654 679 813 969 1144 1341 1654 1897 1798 1706 1612 1430 1439 1603 1665 1540 1455 1455 1474 1585 1712 1923 2103 2059 1990 1843 1685 1589 1485 1398 1342 1360 1498 1720 1795 1763 1697 1329 1136 1062 1065 1093 1133 1210 1246 1238 1270 1296 1318 1268 1257 1231 1202 1159 1121 1129 1175 1229 1275 1202 1100 1053 1012 948 908 800 778 900 1003 1020 1011 1069 1096 1094 1114 1209 1228 1239 1236 1205 1197 1163 1149 1164 1174 1154 1113 1093 1054 992 965 997 1028 1048 1064 1098 1084 1137 1284 1262 1257 1061 919 826 671 560 583 514 362 277 224 202 189 179 170 165 159 155 150 150 156 170 180 208 206 200 186 183 179 196 204 183 212 244 269 325 341 565 959 908 651 424 357 331 451 609 508 539 555 563 466 252 145 106 79 77 126 253 359 203 319 307 446 526 671 621 680 510 322 239 44 0 0 0 0 0 0 0 0 0 0 0 0 0 0 0 nan
341 331 330 339 348 353 354 354 350 347 345 343 348 360 374 393 508 739 738 668 611 569 521 498 489 480 502 491 484 578 715 835 1003 1093 1291 1463 1400 1437 1403 1302 1027 893 950 942 892 1136 1571 1691 2034 2204 1962 1748 1661 1951 2893 2764 1833 1656 1290 1129 1065 989 869 730 636 605 586 539 525 491 481 469 484 541 600 611 595 593 610 646 691 729 780 850 928 1016 1102 1234 1414 1585 1536 1398 1278 1158 1066 961 814 692 667 705 813 896 1023 1225 1403 1553 1498 1369 1312 1276 1318 1485 1513 1445 1394 1446 1494 1625 1693 1762 1825 1803 1707 1650 1511 1326 1179 1090 1103 1256 1378 1438 1536 1320 1179 1148 1162 1213 1264 1320 1329 1295 1306 1367 1377 1298 1259 1261 1269 1197 1173 1156 1180 1220 1178 1048 944 891 844 815 784 744 786 912 1013 1074 1093 1079 1050 1050 1088 1177 1162 1130 1105 1070 1072 1058 1059 1087 1166 1220 1269 1231 1084 995 1079 1139 1197 1181 1150 1174 1172 1230 1247 1155 1155 872 752 761 630 480 439 399 348 260 223 205 192 181 170 163 156 152 151 156 168 189 204 223 201 181 188 199 189 229 246 199 257 329 368 477 537 851 1078 854 576 361 328 383 620 703 591 611 492 517 405 227 155 138 99 137 235 267 242 278 354 482 595 575 611 498 370 276 95 5 0 0 0 0 0 0 0 0 0 0 0 0 0 0 0 0 nan
313 317 327 336 349 361 369 380 391 400 406 403 402 406 410 414 440 558 720 847 856 861 840 756 733 668 571 573 620 605 613 596 784 1078 1056 939 768 843 722 596 551 556 587 601 612 702 787 908 1263 1509 1790 2016 2244 2428 2883 3196 3321 3311 2947 2636 2482 2221 1868 1457 1233 1157 1157 997 919 739 647 599 720 1165 1825 1784 1286 945 809 809 844 887 981 1033 1083 1172 1324 1518 1707 1808 1863 1815 1652 1578 1731 1743 1402 893 574 443 489 575 673 807 942 1059 1139 1143 1181 1184 1139 1193 1333 1505 1530 1400 1324 1359 1353 1342 1299 1251 1258 1293 1255 1186 1117 1042 1069 1135 1305 1441 1527 1519 1558 1525 1421 1348 1363 1489 1504 1482 1461 1402 1359 1360 1342 1353 1338 1311 1247 1168 1102 1021 977 912 864 805 829 867 861 905 951 988 1057 1115 1086 1023 1028 1059 1048 1032 996 968 964 983 1051 1075 1056 1079 1181 1205 1205 1137 1111 1044 1113 1190 1249 1279 1308 1393 1236 1111 990 1049 1061 895 687 602 567 477 441 341 301 256 231 213 199 185 174 164 156 148 143 147 167 192 199 213 209 195 206 218 214 242 222 208 275 413 485 474 596 817 893 660 515 452 491 577 597 658 659 674 488 352 231 149 80 83 128 182 296 307 405 485 470 573 737 694 530 473 303 99 6 0 0 0 0 0 0 0 0 0 0 0 0 0 0 0 0 0 nan
368 358 372 387 388 394 392 406 427 448 467 475 476 482 476 453 456 557 782 999 1059 970 963 892 827 770 653 650 677 570 507 504 524 543 539 572 638 684 615 572 562 579 608 652 724 762 797 769 788 1001 1186 1296 1343 1617 1820 2140 2584 2825 3134 3280 3376 3413 3217 3049 2564 2537 2332 1872 1658 1306 1139 1028 1198 2072 2989 3157 2915 2301 1742 1466 1298 1388 1623 1602 1524 1478 1594 1603 1739 2046 2099 1923 1723 1698 1993 2473 2656 1920 1193 725 559 519 489 554 699 834 985 1039 1055 1043 1003 1035 1036 1055 1187 1233 1159 1060 988 914 907 976 1142 1385 1508 1458 1317 1373 1385 1455 1518 1760 1885 1920 2010 1994 1913 1669 1461 1489 1507 1518 1503 1479 1528 1572 1532 1452 1336 1247 1170 1082 968 911 917 914 844 797 823 902 988 1049 1027 975 988 1002 1017 990 977 974 972 953 969 995 1003 1038 1120 1081 1058 1085 1154 1156 1124 1130 1165 1142 1126 1182 1252 1343 1422 1537 1285 1031 845 896 844 759 712 560 445 431 379 317 284 261 241 224 207 190 179 169 162 153 144 139 154 151 155 168 192 217 230 243 219 237 294 284 346 498 427 395 519 520 463 454 513 614 679 603 587 667 614 586 518 495 414 233 97 74 209 333 482 489 574 738 683 687 866 760 456 293 128 32 0 0 0 0 0 0 0 0 0 0 0 0 0 0 0 0 0 0 nan
675 592 462 434 416 420 418 434 464 496 529 558 572 588 592 540 506 587 792 1010 1137 978 840 732 701 692 680 694 663 622 653 757 921 1029 1055 1040 1188 1144 914 905 1038 1199 1309 1485 1580 1759 1892 1773 1441 1095 946 989 991 1112 1234 1440 1887 2407 2903 3139 3477 3864 3910 3532 3242 3544 3198 2681 2202 2013 1879 1657 1474 1385 1578 1871 2461 2861 2996 2764 2549 2596 2696 2527 2156 1837 1639 1185 1227 1769 2129 2184 2125 2507 2549 2244 2348 2485 2083 1618 1180 909 660 528 642 857 1159 1355 1273 1147 1023 1020 925 847 973 1012 976 917 858 813 969 1218 1423 1625 1734 1675 1471 1506 1586 1657 1593 1706 1801 1725 1630 1670 1928 2142 1872 1531 1424 1480 1550 1559 1525 1452 1450 1389 1260 1155 1065 989 916 869 876 920 921 914 935 987 1035 1055 1051 1071 1105 1088 1117 1043 967 978 989 1009 1049 1034 1024 1091 1073 1059 1091 1110 1113 1067 1084 1148 1255 1325 1339 1276 1278 1324 1436 1523 1262 996 858 771 701 688 626 504 435 380 349 319 289 270 251 231 214 198 186 182 182 171 148 128 128 140 162 184 205 268 265 259 252 305 391 448 481 413 365 519 699 595 496 554 727 807 724 465 479 683 727 708 729 679 584 366 121 83 170 265 594 615 568 665 728 634 646 448 310 173 25 0 0 0 0 0 0 0 0 0 0 0 0 0 0 0 0 0 0 0 nan
840 950 731 515 444 451 461 469 504 552 598 624 627 619 604 575 572 562 589 671 852 1132 1410 1296 1102 954 950 967 982 1293 1940 2379 2427 2466 2074 1526 1471 1393 1427 1918 2313 2367 2503 2772 2564 2409 2282 1998 1628 1558 1473 1375 1445 1752 2030 2342 2392 2198 2364 2589 2937 3267 3433 3593 3415 3456 3459 3343 3181 2993 2788 2583 2147 1666 1291 1244 1331 1528 1707 1941 2124 1861 1693 1504 1185 1084 1098 1008 895 1063 1225 1365 1426 1662 1923 2082 2184 2577 2777 2375 1839 1399 1020 777 705 872 1307 1720 1656 1488 1392 1432 1367 1249 1315 1331 1201 1026 926 992 1226 1518 1791 1986 1953 1739 1620 1650 1761 1751 1599 1562 1508 1514 1548 1594 1695 1768 1809 1699 1489 1488 1618 1614 1477 1336 1367 1349 1235 1144 1076 972 897 873 921 1013 1065 1090 1091 1117 1184 1187 1153 1100 1104 1131 1131 1032 1008 1039 1034 1063 1064 1007 999 1027 1022 1044 1061 1067 1078 1111 1175 1204 1269 1318 1341 1295 1266 1295 1344 1260 1191 1024 874 766 664 588 537 483 431 394 358 329 310 292 270 250 235 223 212 210 197 174 148 120 118 135 161 222 256 263 298 322 342 341 457 482 438 369 435 655 825 667 609 602 589 617 621 410 376 571 670 758 729 488 376 199 47 51 53 156 442 423 333 629 583 474 293 149 36 4 0 0 0 0 0 0 0 0 0 0 0 0 0 0 0 0 0 0 0 0 nan
667 963 1010 850 585 546 565 612 768 773 798 778 713 679 652 640 644 638 653 673 719 922 1262 1728 1985 1862 2243 2431 2771 3200 3638 3431 3111 2862 2442 2278 2118 1955 1920 2166 2162 2090 2201 2189 1902 1780 1774 1807 1776 1941 2444 2659 2751 2911 2976 2974 2888 2659 2744 2874 2910 2780 2722 2931 3322 3371 3191 3194 3431 3480 3216 2596 1737 1103 640 430 304 270 280 378 564 660 658 573 489 496 471 516 465 447 513 637 721 824 925 997 1229 1873 2887 3137 2568 1907 1544 1321 1098 1068 1240 1426 1478 1419 1400 1434 1461 1408 1578 1682 1579 1352 1161 1147 1214 1359 1473 1564 1569 1543 1549 1583 1665 1705 1586 1471 1362 1295 1364 1392 1443 1495 1627 1777 1728 1602 1616 1632 1512 1289 1249 1274 1206 1153 1082 967 912 931 985 1055 1119 1144 1192 1190 1219 1181 1094 1037 1056 1076 1027 998 1066 1090 1082 1083 1074 1012 1010 1052 1044 1079 1091 1114 1157 1195 1230 1258 1274 1301 1324 1333 1336 1325 1295 1303 1324 1225 1118 972 820 668 610 571 457 420 378 360 346 328 310 296 279 265 250 236 204 169 138 104 107 133 182 273 308 288 331 372 378 372 386 382 351 396 486 700 719 716 699 691 640 534 438 353 296 301 284 330 403 326 195 64 13 16 25 176 286 234 323 416 284 291 67 7 0 0 0 0 0 0 0 0 0 0 0 0 0 0 0 0 0 0 0 0 0 0 nan
611 907 1034 1146 1042 881 821 842 1192 1751 2064 1951 1694 1609 1630 1444 1186 1159 1354 1437 1433 1267 1232 1419 1658 2056 2657 2889 3052 2921 2650 2246 2143 2207 2060 2078 2241 2286 2415 2731 2499 2165 2027 1979 2069 2318 2617 2914 2996 2757 3074 3236 3361 3503 3353 2951 2650 2511 2520 2675 3104 3409 3296 3175 3224 3036 2565 2928 3332 3315 3171 2852 1988 1000 496 249 88 -40 -96 -75 68 302 482 483 393 339 331 385 364 261 182 251 370 528 679 723 805 968 1288 1638 1731 1667 1545 1406 1307 1324 1404 1393 1316 1287 1257 1218 1200 1173 1282 1466 1529 1350 1214 1202 1149 1179 1111 1108 1142 1167 1218 1271 1316 1350 1357 1339 1274 1220 1226 1252 1318 1393 1513 1511 1480 1453 1438 1378 1282 1162 1098 1101 1068 1032 990 978 1008 1016 1072 1110 1124 1138 1160 1102 1083 1124 1118 1052 1004 1001 999 1055 1137 1157 1145 1115 1108 1033 1022 1079 1085 1118 1111 1143 1174 1220 1265 1283 1304 1327 1353 1374 1394 1446 1497 1618 1562 1500 1283 1032 873 727 656 552 473 474 418 394 388 392 391 361 296 244 228 223 177 131 108 92 102 132 200 257 303 356 367 371 350 333 335 390 523 530 505 619 687 626 629 826 889 586 411 412 370 377 144 130 125 125 64 3 1 0 6 14 19 55 137 62 25 8 0 0 0 0 0 0 0 0 0 0 0 0 0 0 0 0 0 0 0 0 0 0 2 179 nan
539 737 1001 1348 1800 1691 1578 1521 1537 1471 1684 2021 2239 2424 2912 3203 2900 2735 2990 3198 3296 3033 2817 2755 2408 2234 2010 1793 1727 1658 1618 1606 1606 1668 1839 2174 2692 3148 3272 3301 3341 3272 3255 3280 3306 3518 3431 3627 3627 3312 3270 3163 3067 3322 3183 3315 3323 3104 3164 2994 2959 3194 3413 3220 2783 2196 1879 2287 2381 2508 2640 2201 1909 1681 1485 1298 1024 660 347 188 123 272 502 617 694 742 722 672 612 554 266 237 397 499 548 591 663 738 855 998 1116 1201 1245 1326 1416 1490 1596 1594 1478 1395 1358 1330 1275 1220 1176 1121 1101 1083 994 1027 1043 1062 966 937 929 940 990 1054 1111 1165 1201 1204 1172 1178 1213 1229 1349 1478 1516 1448 1340 1237 1218 1321 1228 989 945 943 929 942 984 1052 1120 1138 1137 1126 1180 1249 1206 1158 1171 1198 1178 1099 1067 1074 1105 1198 1230 1242 1229 1188 1156 1132 1150 1170 1180 1194 1215 1231 1234 1305 1286 1279 1361 1350 1355 1327 1392 1461 1573 1640 1513 1351 1155 971 804 745 624 505 549 550 505 475 419 419 411 356 280 205 141 123 121 93 110 107 80 113 209 252 346 428 450 381 354 357 399 561 648 580 585 677 811 725 685 859 1045 751 689 660 482 415 281 104 16 8 8 0 0 0 0 0 0 1 1 0 0 0 0 0 0 0 0 0 0 0 0 0 0 0 0 0 0 0 0 0 0 0 0 0 16 325 nan
706 1052 1619 2438 2975 3133 3153 2845 2824 2544 2585 2947 2978 2969 3102 3121 2805 2592 2972 3164 3270 3170 2761 2426 2323 2393 2180 1892 1750 1694 1759 1747 2035 2441 3054 3566 3767 3559 3426 3602 3888 4225 4542 4186 3970 4213 3783 3430 3317 3117 2689 2085 1974 2189 2270 2756 2814 2460 2635 2542 2588 2702 2795 2544 1821 1317 1157 1155 1179 1236 1400 1476 1418 1311 1219 1228 1322 1259 1018 820 690 710 820 922 960 988 999 981 915 849 677 581 578 577 622 660 702 759 815 919 1028 1142 1302 1497 1651 1740 1798 1816 1755 1744 1649 1511 1450 1421 1365 1270 1230 1178 1036 1068 999 952 935 925 921 915 922 970 1043 1103 1116 1156 1185 1203 1255 1260 1298 1354 1410 1414 1412 1280 1188 1162 1110 1018 880 869 908 1000 1096 1189 1245 1224 1219 1199 1227 1255 1231 1225 1203 1196 1189 1164 1136 1160 1215 1267 1311 1357 1309 1268 1242 1282 1321 1338 1342 1336 1366 1357 1301 1374 1379 1343 1375 1357 1353 1286 1317 1374 1482 1449 1337 1222 1046 898 731 659 576 624 663 694 629 591 413 321 339 339 292 179 102 74 67 56 70 70 90 164 250 331 399 429 446 459 482 477 587 825 767 715 676 766 931 1047 1033 1006 974 867 788 807 592 415 192 42 2 0 0 0 0 0 0 0 0 0 0 0 0 0 0 0 0 0 0 0 0 0 0 0 0 0 0 0 0 0 0 0 0 0 4 29 41 261 nan
1031 1669 2326 2590 2864 3039 2848 2769 3010 2818 2697 2181 2074 2154 2403 2631 2878 2842 2763 2416 2364 2736 3082 2987 2818 3243 3139 3087 3081 2932 3194 3221 3538 3733 3963 3930 3846 3409 3371 3561 4077 4582 4630 4181 3671 3549 3069 2246 2009 1890 1727 1549 1589 1647 1674 1745 1677 1451 1322 1256 1206 1239 1429 1796 2019 1763 1229 1059 1052 1059 1067 1158 1367 1428 1313 968 861 894 990 977 881 906 1028 1159 1213 1155 1083 1090 1090 1013 908 860 834 845 847 874 938 985 1032 1140 1261 1397 1651 1868 2044 2092 2089 2005 1860 1782 1690 1555 1515 1533 1521 1487 1385 1310 1177 1066 972 952 957 955 948 937 932 935 954 1003 1076 1162 1184 1206 1270 1240 1200 1194 1199 1176 1197 1167 1124 1056 978 1001 962 967 1041 1153 1284 1366 1374 1334 1329 1366 1446 1485 1438 1422 1437 1396 1351 1296 1295 1301 1338 1341 1421 1499 1496 1433 1365 1420 1472 1473 1499 1466 1476 1461 1443 1422 1476 1491 1421 1423 1433 1339 1319 1324 1269 1177 1137 1144 1141 1044 888 787 583 641 719 787 700 522 328 254 305 206 244 151 61 45 39 35 43 66 136 202 244 339 431 500 560 581 570 641 713 731 833 813 818 868 1032 1578 1524 1251 1037 924 1111 934 383 103 8 0 0 0 0 0 0 0 0 0 0 0 0 0 0 0 0 0 0 0 0 0 0 0 0 0 0 0 0 0 0 0 0 0 0 0 3 16 0 43 nan
1295 1612 2096 2430 2296 2453 2685 2844 2238 1707 2178 2031 1447 1521 1583 2040 2312 2396 2347 2631 2959 3037 3127 3105 2890 3091 3315 3255 3292 3435 3692 3811 3745 3765 3987 3718 3674 3742 3283 2573 2997 3603 3239 2718 2399 2050 1786 1568 1363 1323 1295 1272 1251 1157 1112 1057 1018 999 973 946 926 913 907 916 978 1062 1081 1151 1240 1282 1202 1215 1287 1415 1472 1307 1231 1047 909 889 965 1117 1234 1303 1300 1218 1141 1156 1167 1154 1117 1125 1124 1121 1110 1106 1135 1181 1269 1404 1564 1681 1821 1916 2006 2088 2150 2047 1897 1831 1765 1615 1543 1531 1497 1443 1323 1215 1103 1038 986 982 984 982 975 962 941 919 923 950 997 1045 1071 1044 1075 1086 1045 1000 983 968 957 946 975 954 966 1059 1135 1211 1279 1360 1504 1567 1589 1506 1415 1471 1568 1640 1643 1631 1593 1551 1468 1408 1468 1480 1496 1430 1458 1545 1583 1496 1414 1454 1543 1514 1480 1443 1406 1422 1436 1417 1424 1444 1425 1472 1521 1356 1285 1166 1141 1061 1008 1077 1223 1202 1069 704 580 638 716 615 504 313 224 218 246 161 231 70 28 23 23 27 38 64 121 194 320 416 469 504 544 601 558 573 656 743 691 694 811 910 1208 1451 1373 1425 1258 1362 1446 623 105 10 0 0 0 0 0 0 0 0 0 0 0 0 0 0 0 0 0 0 0 0 0 0 0 0 0 0 0 0 0 0 0 0 0 0 0 0 0 0 0 3 nan
1023 1645 2123 2755 2683 2597 2270 1770 1458 1381 1260 1769 2320 2450 2361 2812 2421 2065 2404 2507 2331 2147 2291 2427 2305 2567 2963 3040 3321 3556 3679 3705 3707 3737 3800 3845 3749 3047 2076 1606 1561 1697 1683 1539 1472 1438 1351 1320 1242 1142 1066 1026 1009 995 975 957 944 938 934 926 918 912 906 901 897 898 924 1060 1288 1566 1685 1753 1813 1747 1757 1599 1432 1417 1407 1321 1288 1314 1293 1236 1174 1114 1061 1061 1078 1093 1107 1128 1133 1152 1162 1191 1237 1289 1357 1460 1577 1668 1761 1880 2058 2198 2187 2100 2022 2003 2003 1788 1587 1434 1367 1289 1207 1201 1232 1139 1051 1016 1012 1009 999 984 955 942 956 959 949 950 958 941 955 950 943 878 833 795 786 827 889 949 1008 1135 1301 1496 1651 1622 1627 1515 1508 1473 1360 1281 1318 1438 1546 1609 1601 1546 1509 1511 1549 1601 1598 1518 1573 1757 1719 1633 1593 1549 1469 1416 1359 1323 1343 1366 1395 1400 1451 1496 1510 1621 1545 1233 1154 1046 957 899 840 909 1092 1182 836 672 614 622 569 477 351 275 257 206 115 148 96 17 11 13 15 20 32 92 198 336 438 502 554 546 522 511 478 663 794 644 704 833 812 893 1058 1076 1048 1336 1514 1640 1117 392 30 0 0 0 0 0 0 0 0 0 0 0 0 0 0 0 0 0 0 0 0 0 0 0 0 0 0 0 0 0 0 0 0 0 0 0 0 0 3 2 0 5 nan
1149 2026 2298 2476 2693 2206 1405 1007 875 830 906 1411 1688 1549 1779 2261 2325 2217 2309 2242 2101 2157 2372 2470 2308 2574 3079 3233 3515 3744 3896 3974 3999 3750 3667 3434 2780 2016 1557 1395 1269 1207 1180 1180 1160 1132 1065 1017 993 981 980 982 981 972 962 951 942 936 931 925 919 913 907 902 896 891 886 887 911 988 1152 1347 1579 1623 1603 1402 1230 1200 1349 1469 1497 1403 1264 1123 1039 956 884 877 913 1004 1149 1262 1291 1240 1159 1177 1220 1264 1365 1530 1681 1798 1831 1907 1959 1983 2022 2058 2051 1923 1798 1656 1515 1409 1342 1319 1329 1365 1404 1297 1183 1098 1048 1035 1021 1003 980 990 1044 1069 1072 1085 1118 1142 1116 1071 1054 975 894 914 995 1075 1077 1043 1079 1268 1471 1764 1933 1672 1301 1147 1120 1107 1124 1079 1119 1271 1451 1534 1563 1577 1602 1729 1776 1730 1650 1630 1753 1890 1782 1820 1800 1637 1505 1498 1418 1392 1442 1415 1398 1454 1604 1549 1454 1494 1440 1037 899 838 793 772 721 663 789 1009 784 756 573 536 444 411 402 247 187 142 75 39 10 6 6 8 10 30 79 175 303 459 498 510 658 623 510 427 540 686 601 621 823 1008 1240 1154 1223 1157 1094 1442 1594 1510 879 343 94 0 0 0 0 0 0 0 0 0 0 0 0 0 0 0 0 0 0 0 0 0 0 0 0 0 0 0 0 0 0 0 0 0 0 0 0 0 0 0 0 0 nan
973 1306 1767 1873 1536 1002 680 576 504 476 558 677 813 992 1422 1787 2284 2823 2746 2992 3176 3145 3078 2947 3286 3462 3408 3312 3557 3645 3891 4099 3822 3523 2988 2477 2258 2312 2302 1827 1437 1243 1089 1084 1075 1053 1026 1002 992 985 979 974 969 963 956 950 944 939 933 927 921 915 910 905 901 896 890 885 876 870 873 898 946 1041 1149 1112 1099 1086 1114 1187 1203 1141 1018 909 839 814 811 828 942 1097 1259 1400 1445 1348 1306 1404 1388 1310 1457 1719 1787 1763 1696 1673 1673 1691 1751 1833 1837 1835 1760 1622 1501 1469 1446 1427 1451 1504 1462 1322 1255 1177 1089 1057 1038 1017 1002 1032 1116 1172 1216 1274 1349 1397 1382 1344 1313 1266 1232 1293 1323 1319 1255 1213 1264 1389 1635 1761 1534 1176 1043 1034 1032 1030 1027 1024 1027 1074 1250 1463 1469 1446 1593 1813 1835 1786 1698 1642 1540 1561 1541 1700 1684 1498 1369 1432 1357 1376 1369 1418 1306 1285 1515 1551 1203 1127 1156 955 751 612 683 656 589 533 580 715 677 645 605 475 404 437 347 257 152 56 20 6 3 3 4 6 24 142 238 364 446 473 465 453 542 514 401 370 413 421 458 596 854 1256 1335 1320 1628 1392 1197 1369 1341 1061 463 370 141 0 0 0 0 0 0 0 0 0 0 0 0 0 0 0 0 0 0 0 0 0 0 0 0 0 0 0 0 0 0 0 0 0 0 0 0 0 0 0 0 0 nan
1254 1621 1650 1050 560 430 397 401 418 440 499 635 742 889 1180 1463 2187 2829 3244 3330 3238 3312 3497 3623 3643 3458 3515 3687 3692 3441 3255 3044 3038 2917 2751 2709 2419 2059 1912 1689 1329 1091 1053 1049 1041 1029 1016 1004 996 989 983 976 969 963 957 951 944 939 933 928 923 917 913 909 906 903 898 891 885 876 865 856 849 845 862 893 923 974 944 940 908 848 810 800 795 793 800 882 1045 1186 1245 1213 1128 1084 1190 1324 1484 1464 1391 1412 1373 1304 1294 1324 1370 1435 1472 1513 1562 1627 1645 1617 1538 1484 1530 1560 1581 1614 1531 1379 1225 1114 1095 1071 1050 1028 1024 1069 1145 1206 1265 1356 1440 1465 1420 1365 1347 1371 1390 1361 1309 1268 1232 1299 1376 1458 1578 1272 1060 1040 1042 1041 1047 1051 1047 1034 1100 1257 1345 1393 1247 1327 1453 1534 1585 1365 1270 1188 1090 1194 1499 1630 1519 1537 1378 1460 1449 1330 1179 977 872 915 1185 1322 1148 973 861 692 565 489 504 839 660 512 528 589 630 539 548 539 450 302 257 161 81 13 1 0 0 1 2 26 103 244 381 407 400 272 277 315 387 376 321 327 391 601 770 783 1052 1422 1384 1525 1752 1451 1238 985 875 583 144 56 25 0 0 0 0 0 0 0 0 0 0 0 0 0 0 0 0 0 0 0 0 0 0 0 0 0 0 0 0 0 0 0 0 0 0 0 0 0 0 0 0 43 nan
1122 1089 647 433 414 460 429 445 501 564 702 907 1099 1373 1759 1981 2348 2793 2997 3581 3759 3708 3657 3580 3753 3674 3867 3796 3432 3131 2716 2451 2551 2409 2145 1950 1686 1353 1203 1141 1076 1049 1043 1038 1031 1024 1016 1010 1004 998 990 983 974 967 959 952 945 940 934 930 926 921 919 917 914 909 906 901 895 887 875 861 850 842 835 829 824 819 813 806 799 794 793 792 792 794 816 979 1112 1098 1002 931 889 874 954 1080 1184 1169 1111 1090 1082 1083 1108 1145 1205 1284 1338 1385 1429 1442 1422 1368 1312 1304 1379 1464 1525 1519 1422 1295 1177 1134 1131 1132 1122 1104 1101 1122 1160 1202 1255 1307 1318 1316 1300 1333 1444 1518 1461 1361 1295 1332 1398 1513 1463 1409 1248 1053 1046 1049 1065 1079 1121 1158 1147 1120 1103 1105 1079 1061 1031 1044 1085 1082 1068 1007 1001 1030 1122 1368 1503 1433 1393 1381 1330 1520 1546 1317 1177 1119 1138 861 744 956 970 705 682 619 366 270 545 803 650 555 404 463 601 438 437 535 432 212 108 51 10 1 0 0 0 0 11 79 244 370 310 234 336 191 157 241 218 237 410 503 528 788 891 804 1009 1359 1335 1423 1457 1149 790 700 380 140 24 0 0 0 0 0 0 0 0 0 0 0 0 0 0 0 0 0 0 0 0 0 0 0 0 0 0 0 0 0 0 0 0 0 0 0 0 0 0 0 0 0 0 159 nan
541 607 651 735 769 843 864 882 884 1057 1462 1755 1883 2149 2410 2320 3087 3353 2987 3289 3733 3743 3350 3335 3436 3139 2990 2648 2153 1892 1728 1745 1876 1835 1793 1714 1515 1233 1094 1072 1063 1054 1046 1040 1037 1036 1033 1030 1025 1018 1009 1000 992 983 974 966 959 955 950 944 940 938 937 936 934 929 923 914 904 891 879 867 852 840 833 826 820 813 807 802 796 794 792 790 790 790 799 834 849 883 927 948 916 879 918 988 1042 1089 1134 1127 1114 1145 1225 1273 1355 1407 1447 1569 1619 1570 1495 1420 1308 1247 1266 1274 1268 1262 1234 1204 1206 1219 1248 1274 1262 1237 1221 1223 1243 1270 1293 1314 1353 1391 1444 1503 1570 1553 1503 1429 1351 1430 1525 1503 1252 1133 1049 1054 1064 1130 1210 1165 1166 1228 1246 1229 1270 1269 1231 1176 1148 1126 1082 1052 1037 1037 1038 1115 1190 1350 1386 1511 1557 1296 1232 1370 1181 1133 1303 1196 1094 1127 928 789 774 562 252 146 78 167 371 460 307 217 229 246 277 267 371 454 308 120 32 6 0 0 0 0 0 9 124 233 398 372 191 132 151 151 116 101 191 390 401 449 512 499 468 624 1029 1327 1181 709 692 638 321 249 44 2 0 0 0 0 0 0 0 0 0 0 0 0 0 0 0 0 0 0 0 0 0 0 0 0 0 0 0 0 0 0 0 0 0 0 0 0 0 0 0 0 0 0 0 18 nan
1161 1421 1697 1441 1451 1488 1875 2250 2192 2308 2804 3355 3365 3070 3308 2995 3583 3662 3314 3329 3649 3565 3304 2858 2468 2093 2013 1848 1643 1664 1715 1779 1630 1461 1492 1411 1205 1122 1087 1077 1069 1064 1059 1054 1055 1055 1054 1050 1044 1037 1028 1019 1012 1005 998 993 991 989 986 977 970 966 962 956 950 942 934 924 909 891 877 865 855 843 832 823 816 808 802 796 794 794 793 792 803 825 865 948 1029 1077 1108 1111 1099 1105 1135 1183 1212 1229 1314 1410 1501 1610 1711 1775 1856 1917 2066 2222 2100 2083 1853 1778 1687 1686 1506 1367 1302 1279 1264 1301 1389 1422 1360 1330 1311 1297 1281 1276 1278 1286 1317 1371 1466 1572 1654 1696 1564 1380 1414 1515 1492 1487 1424 1242 1057 1029 1035 1081 1122 1372 1406 1292 1239 1253 1260 1263 1381 1465 1453 1392 1375 1331 1279 1227 1197 1217 1171 1186 1295 1488 1471 1434 1438 1309 1084 1084 1166 1149 1145 1116 1031 1394 1304 1096 773 439 97 40 30 35 79 76 54 88 148 147 82 123 168 157 63 10 1 0 0 0 0 3 11 78 253 209 267 190 127 71 34 46 35 37 173 289 237 201 211 230 493 725 840 993 633 174 238 99 50 9 1 0 0 0 0 0 0 0 0 0 0 0 0 0 0 0 0 0 0 0 0 0 0 0 0 0 0 0 0 0 0 0 0 0 0 0 0 0 0 0 0 0 0 0 31 3 nan
2422 2477 2857 2892 2912 2618 3276 3712 3805 3502 3533 3766 3589 3436 3337 3490 3559 3313 3135 2947 2868 2660 2495 2329 1943 1607 1430 1307 1242 1258 1308 1305 1228 1156 1145 1121 1127 1117 1094 1087 1085 1087 1086 1080 1077 1075 1073 1069 1064 1056 1050 1044 1038 1031 1027 1025 1024 1023 1016 1005 998 994 989 979 968 959 949 940 925 904 884 871 857 839 823 816 811 803 797 794 796 799 811 888 974 1080 1180 1261 1320 1364 1395 1442 1590 1670 1696 1682 1642 1571 1576 1697 1855 2202 2683 2995 2865 2554 2915 2908 2624 2728 2941 2766 2417 2084 1791 1525 1397 1369 1362 1380 1468 1533 1437 1393 1396 1352 1317 1310 1311 1299 1306 1364 1534 1608 1459 1406 1400 1317 1345 1363 1380 1390 1313 1143 1042 1059 1096 1144 1155 1510 1499 1404 1375 1351 1354 1360 1429 1493 1451 1440 1416 1401 1386 1295 1164 1162 1181 1276 1465 1603 1541 1463 1431 1132 1039 1193 1443 1564 1268 1267 1459 1414 858 758 596 207 55 34 21 15 9 7 10 23 47 62 47 55 35 4 0 0 0 0 0 0 2 20 47 110 158 102 76 41 16 5 2 2 1 12 54 89 103 72 84 263 390 448 715 740 310 36 18 1 0 0 0 0 0 0 0 0 0 0 0 0 0 0 0 0 0 0 0 0 0 0 0 0 0 0 0 0 0 0 0 0 0 0 0 0 0 0 0 0 0 0 0 0 0 0 16 1 nan
3455 3590 3697 3814 3641 3512 3587 3651 3243 3293 3245 3351 3659 3949 3886 4258 4158 4004 3674 3533 3074 2292 1983 1798 1556 1361 1261 1224 1203 1185 1170 1157 1148 1141 1134 1125 1120 1122 1108 1115 1123 1120 1112 1107 1100 1094 1093 1090 1085 1079 1073 1066 1063 1061 1059 1057 1057 1054 1043 1034 1028 1023 1017 1007 1000 993 984 974 958 933 904 879 851 824 811 810 813 810 808 845 941 1066 1267 1389 1463 1537 1606 1668 1705 1722 1705 1834 2023 2169 2339 2654 2566 2313 2313 2607 2650 2835 3328 3562 3634 3585 3865 4143 3757 3170 3591 3803 3594 3180 2883 2190 1770 1548 1448 1380 1390 1514 1502 1557 1614 1543 1503 1467 1404 1396 1407 1385 1432 1363 1276 1296 1303 1276 1315 1287 1230 1227 1198 1108 1115 1183 1255 1311 1219 1450 1481 1423 1411 1413 1410 1408 1423 1436 1376 1401 1369 1310 1291 1280 1198 1057 1094 1247 1445 1603 1536 1343 1217 1058 1203 1511 1625 1426 1272 1411 1252 1032 603 382 150 45 30 25 16 10 6 4 3 5 11 17 14 9 2 0 0 0 0 0 0 0 9 20 47 69 51 20 7 3 1 0 0 0 0 3 10 7 10 27 108 199 311 436 628 436 128 34 1 0 0 0 0 0 0 0 0 0 0 0 0 0 0 0 0 0 0 0 0 0 0 0 0 0 0 0 0 0 0 0 0 0 0 0 0 0 0 0 0 0 0 0 0 0 0 0 0 2 nan
3531 3228 2925 3072 2736 2926 2789 2888 3554 4142 4008 4259 4773 4989 4466 4437 4487 4084 4175 4180 3952 2978 1999 1594 1399 1301 1257 1230 1206 1187 1172 1164 1157 1151 1145 1138 1136 1125 1129 1140 1145 1140 1132 1125 1119 1113 1114 1112 1108 1101 1094 1091 1090 1091 1090 1090 1089 1081 1073 1064 1059 1058 1055 1048 1042 1034 1023 1007 987 957 916 870 838 824 817 840 916 965 1048 1216 1454 1738 2133 2320 2336 2267 2361 2439 2515 2454 2301 2410 2808 3097 3461 3982 4138 3531 3200 3541 3687 3708 3921 3753 3533 3903 4022 4111 4095 3619 3945 4056 3926 3680 4043 3838 3357 2748 2046 1774 1767 1506 1452 1633 1799 1751 1535 1479 1556 1635 1630 1455 1373 1409 1393 1340 1342 1354 1337 1344 1296 1245 1195 1213 1301 1543 1577 1529 1205 1247 1308 1322 1362 1423 1426 1408 1375 1326 1319 1370 1349 1287 1209 1225 1209 1052 1054 1292 1425 1608 1489 1200 1228 1316 1376 1516 1478 1217 1161 1002 893 637 278 76 32 24 17 14 13 9 5 4 1 1 2 2 2 1 0 -0 0 0 0 0 0 0 1 5 41 43 9 2 1 1 1 0 0 0 0 0 0 0 6 34 98 107 230 463 603 509 276 36 10 0 0 0 0 0 0 0 0 0 0 0 0 0 0 0 0 0 0 0 0 0 0 0 0 0 0 0 0 0 0 0 0 0 0 0 0 0 0 0 0 0 0 0 0 0 0 0 0 172 nan
2992 2396 2098 2536 2708 2913 3462 3784 4144 4724 4406 4551 4731 4796 4328 4145 4715 4542 4132 3906 4380 4108 3066 2134 1774 1428 1283 1238 1209 1189 1179 1174 1169 1163 1164 1166 1173 1169 1160 1163 1164 1160 1152 1143 1136 1132 1133 1135 1130 1123 1116 1117 1119 1121 1120 1120 1117 1111 1105 1095 1095 1102 1106 1095 1090 1079 1060 1039 1009 968 921 880 866 901 947 1165 1608 1866 2075 2304 2629 2942 3096 3258 3341 3349 3359 3380 3431 3326 2991 3100 3031 3023 3155 3291 3407 3081 2877 3045 3276 3476 3735 4113 3736 3489 3628 3896 4026 3900 3894 3949 3977 3773 3790 4047 4086 3950 3502 2757 2404 2000 1561 1551 2048 2188 1828 1622 1515 1462 1471 1461 1443 1424 1359 1324 1318 1319 1329 1355 1343 1316 1278 1321 1560 2064 1490 1178 1113 1171 1205 1241 1335 1401 1429 1408 1362 1328 1311 1319 1287 1252 1222 1163 1178 1015 1198 1399 1459 1720 1671 1492 1198 1245 1576 1859 1648 961 738 660 472 338 142 35 16 12 10 7 7 5 4 3 1 0 0 0 -0 0 0 0 0 0 0 0 0 2 22 39 27 13 1 0 1 1 2 0 0 0 0 0 0 0 25 43 38 98 238 448 497 618 659 285 228 28 1 0 0 0 0 0 0 0 0 0 0 0 0 0 0 0 0 0 0 0 0 0 0 0 0 0 0 0 0 0 0 0 0 0 0 0 0 0 0 0 0 0 0 0 0 0 1 224 nan
1983 2062 2306 2621 2817 3342 3565 3911 4004 4271 4669 4831 4584 4515 4340 4482 4680 4437 4415 4406 4183 4090 4046 3320 2829 2104 1494 1318 1239 1202 1192 1187 1182 1180 1185 1188 1188 1196 1199 1197 1194 1207 1216 1210 1166 1152 1154 1156 1153 1145 1139 1144 1148 1150 1150 1151 1146 1145 1143 1142 1144 1143 1148 1135 1125 1102 1073 1040 1017 1002 984 992 1063 1283 1832 2621 3046 3133 3359 3523 3512 3359 3260 3361 3475 3334 3100 3014 3231 3297 2855 2842 2842 2744 2769 2866 3155 3174 3027 3007 3219 3369 3525 3772 3991 4136 3868 3725 3907 4327 4517 4256 4199 4006 3933 3866 4018 3917 3826 3466 3055 2745 2087 1711 1752 1912 2058 2095 2047 1699 1427 1366 1370 1367 1348 1342 1337 1332 1338 1352 1353 1339 1307 1355 1806 1841 1173 1106 1172 1272 1324 1314 1342 1414 1396 1376 1357 1339 1289 1267 1275 1220 1182 1110 1084 1019 1321 1547 1775 1885 1788 1431 925 1101 1246 1416 1389 787 370 263 194 109 43 20 12 9 9 7 7 5 3 2 0 0 0 0 0 0 0 0 0 0 0 0 0 4 21 18 2 0 0 0 0 0 0 0 0 0 0 0 0 2 35 31 45 144 275 305 387 491 657 598 569 494 152 3 0 0 0 0 0 0 0 0 0 0 0 0 0 0 0 0 0 0 0 0 0 0 0 0 0 0 0 0 0 0 0 0 0 0 0 0 0 0 0 0 0 0 0 16 104 200 nan
1680 1856 2356 2941 2770 2914 3618 3773 3621 4026 4712 4616 4287 4257 4663 4821 4592 4284 4152 4219 4411 4191 4740 4222 3781 3116 2331 1748 1378 1240 1214 1204 1200 1202 1210 1213 1213 1215 1216 1214 1212 1208 1206 1206 1191 1174 1179 1180 1176 1167 1162 1171 1179 1178 1179 1180 1177 1178 1178 1186 1191 1181 1175 1161 1143 1120 1099 1093 1108 1161 1245 1381 1772 2483 2867 3073 3268 3466 3593 3619 3405 3117 3458 3702 3592 3239 2795 2746 2777 2782 2734 2710 2747 2758 2766 2777 2946 3142 3209 3279 3597 3938 3991 4164 4254 4199 4219 4285 4218 4277 4394 4358 4600 4317 4071 4083 4123 4100 3967 3800 3586 3218 3183 2596 2273 2240 2399 2413 2306 2027 1586 1453 1409 1399 1392 1379 1375 1363 1348 1344 1353 1350 1315 1328 1697 1388 1114 1145 1291 1379 1418 1352 1377 1395 1353 1327 1322 1271 1265 1214 1208 1234 1112 1078 971 1030 1352 1651 1627 1525 1664 1171 841 984 1057 1011 789 511 242 139 88 56 37 23 16 12 12 10 9 7 4 2 0 0 0 0 0 0 0 0 0 0 0 0 0 0 0 0 0 0 0 0 0 0 0 0 0 0 0 0 5 42 128 51 63 158 216 171 277 335 443 527 493 694 506 58 0 0 0 0 0 0 0 0 0 0 0 0 0 0 0 0 0 0 0 0 0 0 0 0 0 0 0 0 0 0 0 0 0 0 0 0 0 0 0 2 0 0 2 113 493 750 nan
1230 1550 2367 2661 3116 3388 3162 3234 3889 3985 3929 4093 4296 4432 4549 4511 4464 4083 4059 4269 4344 4428 4787 4478 3855 3495 3133 2472 1735 1351 1261 1232 1226 1231 1238 1241 1241 1236 1233 1230 1226 1222 1216 1206 1198 1200 1205 1205 1200 1189 1187 1199 1213 1211 1211 1212 1213 1213 1211 1216 1214 1215 1219 1218 1223 1228 1240 1345 1615 1976 2283 2540 3036 3604 3576 3711 4143 4263 4249 4229 3872 3409 3136 3002 2983 3206 3069 2881 2770 2745 2727 2719 2726 2777 2786 2783 2770 2757 2834 3254 3439 3717 4202 4436 4574 4643 4629 4489 4416 4414 4269 4140 4197 4371 4180 4206 4325 4246 4051 3966 3796 3554 3485 3700 3277 2910 2823 2643 2394 2086 1772 1558 1462 1465 1469 1451 1435 1415 1394 1371 1347 1350 1390 1461 1484 1207 1134 1238 1338 1427 1457 1351 1372 1387 1354 1301 1259 1200 1191 1169 1129 1183 1094 957 1038 1173 1463 1542 1328 1484 1552 1198 1103 1341 1174 1020 686 329 171 93 66 48 36 28 20 16 14 13 12 8 7 5 3 1 0 0 0 -0 0 0 0 0 0 0 1 0 0 0 0 0 0 0 0 0 0 0 0 0 0 0 14 79 96 127 133 154 128 119 171 189 291 446 480 581 634 298 5 0 0 0 0 0 0 0 0 0 0 0 0 0 0 0 0 0 0 0 0 0 0 0 0 0 0 0 0 0 0 0 0 0 0 0 0 0 50 81 0 0 3 152 532 835 nan
885 1523 2011 2774 3504 3758 3162 3413 3628 3917 4333 4646 4584 4675 4738 4539 4314 4138 4063 4002 4256 4113 3948 4300 3649 3286 2728 2330 1848 1480 1338 1302 1295 1286 1276 1276 1270 1261 1253 1248 1245 1241 1233 1224 1222 1228 1234 1234 1230 1225 1226 1236 1253 1251 1247 1248 1255 1256 1252 1262 1270 1294 1334 1369 1424 1478 1756 2505 3193 3537 3832 4070 3855 4153 4160 4069 4095 4090 3819 3638 3580 3491 3505 3248 3016 2979 3127 3213 2916 2768 2736 2741 2725 2715 2732 2755 2739 2756 2765 2864 3055 3329 3886 4502 4506 4307 4439 4594 4430 4347 4431 4440 4400 4342 4136 4208 4236 4249 4150 3988 3912 3823 3643 3563 3583 3646 3380 3148 2922 2636 2214 1743 1518 1544 1561 1536 1508 1498 1479 1453 1412 1391 1394 1458 1352 1170 1143 1293 1392 1448 1462 1350 1366 1365 1338 1283 1223 1179 1146 1124 1076 1066 1072 948 1050 1145 1442 1726 1513 1363 1338 1050 1161 1250 1197 998 808 512 294 88 57 47 38 29 22 18 16 15 13 12 10 7 5 3 3 2 1 -0 -0 -0 0 0 0 1 3 0 0 0 0 0 0 0 0 0 0 0 0 0 0 1 9 22 50 77 72 63 55 95 102 135 271 466 340 431 614 598 126 1 0 0 0 0 0 0 0 0 0 0 0 0 0 0 0 0 0 0 0 0 0 0 0 0 0 0 0 0 0 0 0 0 0 0 0 0 80 106 2 0 27 347 541 507 nan
835 1620 1831 2809 3367 3303 3646 3505 3884 4116 4317 4309 4406 4216 4279 4393 4312 4357 4304 4250 4239 4512 3749 3742 3758 3434 3027 2589 2045 1854 1609 1521 1469 1399 1335 1315 1303 1290 1274 1269 1267 1262 1254 1248 1250 1259 1265 1273 1291 1318 1325 1333 1315 1296 1289 1293 1310 1316 1332 1364 1406 1493 1585 1680 1790 2069 2857 3644 3814 3854 3936 4305 4309 4501 4538 4417 4291 4303 4329 4147 4019 3880 4151 4274 3968 3491 3311 3237 3008 2972 2889 2797 2769 2727 2696 2723 2729 2736 2761 2843 2997 3226 3315 3777 4030 3881 3984 4111 4234 4229 4216 4273 4351 4427 4214 4018 4027 4149 4039 4065 4090 3878 3813 3761 3735 3669 3576 3757 3367 3228 2974 2342 1819 1675 1708 1687 1620 1589 1619 1547 1469 1389 1382 1435 1343 1288 1239 1318 1391 1468 1477 1357 1362 1372 1342 1311 1303 1275 1242 1206 1124 1036 1022 1016 898 1057 1351 1765 1588 1412 1251 903 949 1087 1192 1075 883 791 387 92 46 39 33 27 22 21 19 18 17 15 12 10 7 5 6 6 4 0 0 -0 0 0 3 21 59 31 4 0 0 0 0 0 0 0 0 0 0 0 0 0 2 2 9 14 3 3 13 32 46 143 230 270 276 395 652 845 527 90 1 0 0 0 0 0 1 1 0 0 0 0 0 0 0 0 0 0 0 0 0 0 0 0 0 0 0 0 0 0 0 0 0 0 0 0 15 16 13 28 187 468 645 712 nan
855 1456 1880 2502 2991 3186 3749 3320 3749 4396 4346 4276 4521 4369 4380 4531 4490 4516 4452 4399 4298 4593 4316 4150 4153 3946 3387 3262 2585 2239 1973 1861 1836 1727 1547 1417 1360 1328 1301 1293 1293 1285 1278 1274 1278 1289 1296 1315 1345 1364 1361 1348 1336 1334 1340 1366 1399 1446 1580 1664 1730 1926 2059 2249 2594 3263 3976 4010 3848 4049 3965 4308 4723 4921 4976 4788 4458 4087 3949 3943 4029 4106 4344 4419 4371 4277 4080 3860 3513 3174 3030 2869 2784 2762 2722 2697 2697 2702 2732 2810 2946 3134 3251 3285 3425 3518 3722 3669 3482 3628 3825 3836 3802 4051 4043 3890 3828 3826 3775 3828 3850 3667 3670 3707 3791 3837 3414 3444 3687 3778 3664 3023 2413 2182 2123 1951 1961 1696 1683 1635 1547 1406 1337 1302 1268 1331 1378 1368 1414 1526 1519 1477 1512 1496 1453 1483 1478 1393 1315 1216 1129 1054 976 997 881 1068 1291 1615 1442 1060 829 805 952 1277 1425 1370 1123 981 416 110 40 30 29 26 26 25 23 22 18 16 13 12 11 10 9 7 3 0 -0 -0 0 5 50 142 164 117 53 23 18 29 23 7 1 0 0 0 0 0 0 0 0 0 0 0 0 0 3 13 33 92 154 215 258 337 614 730 717 439 39 0 0 0 0 0 21 17 0 0 0 0 0 0 0 0 0 0 0 0 0 0 0 0 0 0 0 0 0 0 14 52 42 1 0 0 0 15 63 208 546 525 459 511 nan
1166 1772 1752 2001 2623 3090 3668 3548 3961 4016 4168 4459 4442 4449 4696 4733 4689 4609 4602 4749 4723 4726 4486 4274 4317 3630 3684 3785 2864 2672 2603 2515 2440 2194 2070 1832 1622 1548 1462 1366 1337 1321 1309 1302 1308 1323 1329 1343 1382 1400 1398 1388 1374 1390 1437 1543 1650 1767 1962 2174 2498 2808 3035 3679 4538 4772 4526 4466 4404 4467 4634 4809 4716 4572 4558 4612 4549 4283 4099 4070 4072 4003 4010 4207 4452 4685 4664 4395 3996 3495 3164 2941 2836 2812 2780 2729 2705 2693 2696 2701 2724 2789 2882 3012 3134 3343 3423 3349 2961 2884 2943 3064 3280 3526 3735 3889 3932 3643 3475 3434 3377 3294 3303 3377 3648 3794 3570 3310 3242 3271 3345 3405 3153 2866 2810 2507 2246 1761 1593 1626 1663 1728 1789 1611 1390 1522 1667 1517 1537 1637 1583 1626 1634 1586 1555 1587 1550 1396 1353 1279 1162 1090 1000 895 909 1190 1469 1309 939 776 855 1152 1275 1280 1414 1472 1300 760 353 100 39 31 32 31 31 29 26 23 20 18 16 17 14 12 8 6 2 1 0 0 6 61 128 146 176 200 134 108 122 70 77 42 1 0 0 0 0 0 0 0 0 0 0 0 0 2 3 4 22 81 153 120 176 408 454 488 729 738 288 8 0 0 0 0 1 0 0 0 0 0 0 0 0 0 0 0 0 0 0 0 0 0 0 0 0 0 0 1 80 95 23 0 1 26 35 168 203 443 842 823 842 933 nan
1227 1407 1584 2102 2282 2667 3566 3773 4485 4400 4187 4256 4237 4527 4549 4369 4527 4594 4832 4892 4769 4736 4850 4616 4603 3963 4315 4093 3479 3378 3654 3519 3524 3393 3081 2737 2514 2261 2103 1778 1611 1543 1473 1409 1414 1395 1387 1383 1405 1447 1480 1517 1539 1585 1754 1982 2188 2524 2994 3134 3838 4319 4456 4589 4905 5001 4936 4810 4527 4485 4579 4536 4519 4506 4397 4399 4436 4418 4319 4240 4221 4152 4092 4246 4288 4406 4472 4404 4163 3840 3500 3199 3016 2910 2837 2776 2723 2700 2687 2683 2684 2685 2692 2714 2765 2848 2913 3032 2920 2884 2964 3070 3203 3334 3239 3420 3651 3689 3780 3472 3232 3196 3197 3229 3345 3313 3450 3024 2871 3119 3260 3049 3181 2886 2728 2651 2469 1955 1701 1917 1840 1783 1824 1652 1476 1523 1720 1700 1702 1567 1525 1583 1551 1505 1484 1538 1480 1346 1311 1268 1131 1027 930 905 1101 1342 1461 1093 908 1138 1385 1398 1124 1141 1328 1316 1154 637 276 83 42 35 36 34 33 31 29 24 22 21 22 26 28 19 22 17 11 6 3 4 29 150 126 95 89 141 139 75 61 22 34 15 0 0 0 0 0 0 0 0 0 0 0 0 0 1 7 17 17 34 117 152 193 269 378 506 574 687 429 31 0 0 0 0 0 0 0 0 0 0 0 0 0 0 0 0 0 0 0 0 0 0 0 0 0 0 0 0 44 63 2 83 372 617 453 598 630 955 1348 1223 938 600 nan
1335 1726 2063 2927 2957 2842 3839 3718 4093 4230 4622 4550 4411 4399 4529 4400 4644 4535 4760 4642 4213 4503 4915 5100 4920 4259 4591 4785 4629 4278 4409 4429 4667 4480 4192 4112 3545 3084 2715 2486 2393 2273 2314 2001 1762 1574 1537 1546 1564 1691 1885 2071 2130 2245 2451 2806 3135 3715 4306 4545 5013 4898 4870 4898 4896 4915 4954 4895 4880 4906 4830 4890 4856 4774 4745 4748 4677 4706 4711 4619 4533 4568 4505 4566 4731 4597 4442 4127 3954 3935 3890 3659 3354 3272 3109 2981 2806 2739 2721 2707 2704 2699 2691 2687 2686 2688 2694 2732 2779 2793 2839 2972 3107 3275 3341 3481 3534 3243 3404 3603 3487 3254 3215 3211 3307 3409 3126 2761 2543 2665 3178 3087 2751 2605 2359 2283 2197 2002 1768 1633 1629 1917 2004 1788 1642 1559 1620 1768 1763 1553 1461 1520 1510 1508 1441 1434 1402 1360 1228 1143 1077 1028 912 901 1125 1244 1370 1038 943 1626 1443 1261 1035 1059 1239 1004 849 526 228 81 47 41 39 38 36 33 31 27 30 56 93 124 165 106 159 95 56 39 29 15 22 60 53 51 46 71 54 19 8 0 6 3 0 0 0 0 0 0 0 0 0 0 0 0 0 2 17 54 61 111 132 149 278 386 401 310 274 431 424 61 0 0 0 0 0 0 0 0 0 0 0 0 0 0 0 0 0 0 0 0 0 0 0 0 0 0 0 1 73 74 65 658 1341 1055 729 1206 1154 908 1245 1174 458 199 nan
2144 2607 2999 3686 3219 3553 3892 4141 4684 4885 4172 3669 4081 4448 4001 4056 3923 4070 4438 4776 4142 4255 4678 4876 5057 4473 4521 4697 4813 4829 4920 5157 5115 4591 4547 4327 4237 3539 3422 3382 3006 2981 3611 2901 2129 1870 1860 1977 2120 2559 3274 3812 3601 3870 4090 4252 4412 4747 4749 4699 4683 4699 4764 4863 4904 4926 4910 4959 5020 5132 5307 5374 5077 5018 5017 5057 4982 4862 4825 4914 4945 4853 4867 4828 4902 4969 4979 4621 4282 4090 3828 3788 3854 3968 3680 3347 3068 2888 2822 2793 2784 2773 2771 2767 2765 2744 2744 2750 2727 2738 2767 2828 2946 3145 3435 3712 3907 3788 3260 3200 3426 3454 3443 3439 3378 3553 3404 2938 2654 2523 2505 2476 2325 2167 2114 1951 1949 1882 1728 1663 1608 1847 2123 2052 1930 1690 1648 1837 1757 1559 1418 1397 1398 1454 1513 1466 1372 1315 1236 1191 1138 1030 950 841 992 1112 1352 987 865 1349 1211 1161 1030 980 998 884 696 465 197 74 54 48 43 41 38 35 33 40 100 242 392 347 371 357 424 214 175 110 65 31 15 16 22 46 24 8 0 0 0 0 0 0 0 0 0 0 0 0 0 0 0 0 0 0 0 0 3 39 125 149 112 158 302 319 144 164 225 322 313 37 0 0 0 0 0 0 0 0 0 0 0 0 0 0 4 1 0 0 0 0 0 0 0 0 0 0 2 62 354 520 630 1488 1514 770 831 1238 805 476 578 471 148 98 nan
3157 2987 3831 4415 3800 4439 4391 4292 4435 4040 3442 3748 4202 4234 3876 3743 3398 3864 3546 3791 3910 4662 5157 4957 5054 5173 4984 4938 4820 5033 5172 5014 4992 4957 4911 4813 4829 4624 4649 4421 3561 3421 3591 3110 2783 2571 2670 2886 3304 4254 4754 4876 4765 4935 4970 5050 5045 5037 4997 4915 4901 4952 5013 5056 5089 5088 5096 5181 5229 5213 5299 5232 5100 5002 4979 5041 5043 4985 4932 4833 4925 5026 5042 4946 4968 5058 4985 4920 4873 4818 4347 4422 4542 4619 4581 4285 4023 3730 3589 3581 3151 3382 3435 3510 3422 3546 3420 3204 3099 2950 2847 2850 2968 3254 3556 3976 4362 4340 3982 3656 3243 3046 3045 3027 2968 3204 3433 3172 2898 2930 3083 2796 2271 2004 1868 1794 1809 1753 1966 2035 1786 1771 1968 2144 2096 1824 1729 1796 1679 1540 1441 1338 1308 1343 1448 1406 1351 1322 1190 1227 1235 1103 958 902 1129 1311 1231 719 666 1006 1079 1185 1043 947 1038 1162 766 350 135 72 59 52 46 43 40 39 58 94 159 290 280 230 305 434 426 332 256 166 77 49 45 27 12 103 49 0 0 0 0 0 0 0 0 0 0 0 0 0 0 0 0 0 0 0 0 0 0 31 107 58 154 215 254 299 160 159 265 410 295 21 0 0 0 0 0 0 0 0 0 0 0 0 0 6 45 7 0 0 0 0 0 0 0 0 0 11 81 422 1035 1039 893 1516 1492 944 1036 999 688 280 97 59 33 34 nan
3085 3844 4158 4147 3882 4364 4284 3832 3167 3294 4351 4359 4425 4319 4195 4131 3951 3597 2924 3426 4160 4745 4550 4826 5130 5156 5243 5218 5165 5430 5411 5111 5065 5019 5146 5103 5166 5114 5234 5460 4884 4508 4629 4401 4268 4295 4486 4573 4705 4668 4798 4870 4995 5050 5151 5197 5156 5143 5077 5068 5055 5059 5026 5057 5072 5010 4991 5011 4975 4921 4931 4933 4942 4946 4956 4951 4945 4930 4971 4998 4994 5078 5056 5024 5180 5231 5021 4990 4880 4745 4545 4658 4736 4772 4665 4616 4634 4457 4392 4271 3784 4165 4507 4387 4237 4292 4373 4065 4238 4043 3568 3272 3315 3445 3889 4045 4295 4516 4450 4319 3732 3277 3101 2939 2805 2953 2877 2802 3137 2620 2687 2758 2476 2122 1917 2077 1998 1906 2039 2114 1901 1814 1899 2012 2048 2016 1872 1716 1633 1467 1382 1346 1275 1249 1366 1422 1306 1202 1125 1160 1303 1206 1113 847 1077 1282 874 568 758 1073 1040 1113 1077 1009 1221 1365 674 325 147 68 57 53 49 46 44 44 70 83 108 122 182 213 278 386 362 298 238 170 94 93 92 56 14 23 12 0 0 0 0 0 0 0 0 0 0 0 0 0 0 0 0 0 0 0 0 0 0 5 22 40 236 353 499 449 207 180 256 229 152 51 1 0 0 0 0 0 0 0 0 0 0 0 0 9 4 0 0 0 0 0 0 0 0 0 0 86 192 548 1019 1020 995 1449 1374 1069 1333 1349 1231 672 245 31 11 19 nan
3767 4039 4325 4475 4428 4561 3902 3798 2773 3570 4291 4257 4180 4157 3895 3410 3409 3563 3732 2960 3072 4021 4016 3959 4401 4658 5055 5392 5450 5450 5635 5533 5270 5204 5268 5253 5396 5214 5181 5352 5537 5310 5324 5384 5057 5070 5211 4969 5026 5040 5142 5304 5241 5202 5113 5010 5000 4950 4957 5011 5022 5008 5022 5267 5318 5115 5037 5000 4960 4978 4996 5013 5064 5120 5068 5094 5109 5032 5011 5055 5119 5025 4984 5056 5114 5042 4981 5028 4919 4882 4710 4717 4671 4711 4727 4790 4792 4605 4504 4487 4312 4462 4445 4356 4345 4471 4519 4381 4549 4544 4469 4319 4394 4033 3974 4142 4298 4333 4507 4251 3794 3513 3209 3094 3196 3319 3434 3347 3434 2946 2864 2769 2633 2124 2010 2127 2205 2547 2138 2031 1996 1881 1950 1933 1895 2052 2128 1739 1531 1413 1314 1282 1262 1191 1307 1455 1372 1206 1036 1093 1337 1451 1228 793 816 910 556 572 817 1137 989 869 953 941 1211 1233 598 420 146 70 58 55 52 51 48 44 41 49 64 109 147 193 257 271 269 205 162 178 175 113 51 22 2 0 0 0 0 0 0 0 0 0 0 0 0 0 0 0 0 0 0 0 0 0 0 0 1 17 21 93 288 495 620 480 206 189 237 311 200 77 0 0 0 0 0 0 0 0 0 0 0 0 0 3 2 0 0 0 5 32 31 44 60 3 5 117 469 698 674 574 759 1165 1311 1174 1488 907 1120 896 326 65 15 14 nan
3548 3812 3943 4219 4297 4144 3426 2845 2556 3161 3352 3471 3653 3254 2827 2780 2396 2261 2839 3026 3393 3925 3908 3447 3733 4600 4738 4941 5313 5439 5686 5604 5419 5469 5417 5381 5287 5175 5054 4972 5234 5484 5528 5789 5782 5749 5670 5504 5488 5428 5541 5282 5170 5182 5064 4938 4894 4925 4914 4896 4949 4952 4989 5168 5195 5114 5085 5069 5064 5007 4953 4979 5040 5042 4943 4948 4966 4954 4952 5125 5163 4981 4945 4994 5031 5017 4953 5009 4899 4870 4840 4775 4705 4606 4518 4516 4578 4679 4844 4826 4784 4742 4672 4551 4481 4429 4504 4534 4586 4451 4389 4470 4395 4244 4405 4390 4416 4351 4430 4358 3999 3353 3407 3602 3435 3439 3737 4111 3814 3208 3414 3476 3300 2390 2190 2199 2075 2292 2344 2136 2054 2062 2018 1891 1805 1986 2195 1837 1525 1364 1278 1212 1183 1156 1272 1442 1451 1227 1049 949 1131 1265 932 535 521 571 546 688 1076 1306 962 724 828 834 973 626 244 204 80 63 59 56 57 54 49 44 40 41 46 85 179 220 226 265 184 129 125 186 127 47 4 1 0 0 0 0 0 0 0 0 0 0 0 0 0 0 0 0 0 0 0 0 0 0 0 0 2 41 122 239 244 474 489 312 161 137 190 347 143 19 0 0 0 0 0 0 0 0 0 0 0 2 30 62 46 141 121 171 164 413 241 211 146 154 183 268 366 413 174 216 446 757 989 1262 1594 747 1031 751 333 55 6 10 nan
3545 3830 2978 3548 3389 3278 2863 2102 2477 2263 3069 3001 3430 2829 2606 3714 3673 3323 3306 4265 3892 4002 4453 3822 3558 3801 3938 4130 4684 5209 5133 5595 5362 5353 5449 5600 5478 5375 5178 4975 4952 5034 5174 5448 5812 5859 5687 5671 5553 5517 5414 5225 5004 4987 4986 5020 4982 4952 4905 4883 4932 4973 5029 5031 5061 5004 4967 5045 5028 4917 4862 4927 5000 5002 4983 5150 5070 4928 4845 4912 4891 4853 4825 4836 4908 4964 4901 4917 4899 4834 4836 4783 4729 4700 4614 4544 4504 4485 4530 4572 4602 4597 4590 4583 4527 4503 4521 4508 4574 4559 4558 4547 4522 4477 4412 4264 4238 4280 4300 4159 3951 3616 3316 3466 3466 3587 3770 3975 3714 3635 3587 3328 3150 3123 3011 2640 2215 2255 2269 2179 2040 2085 1968 1827 1695 1795 2107 1904 1524 1351 1267 1193 1113 1101 1207 1379 1408 1293 1141 876 738 772 637 499 556 534 599 894 746 864 946 657 581 429 284 109 80 76 71 66 64 61 57 53 48 43 42 38 46 85 152 245 229 156 111 89 106 127 59 6 0 0 0 0 0 0 0 0 0 0 0 0 0 0 0 0 0 0 0 0 0 0 0 0 0 1 8 66 112 192 236 443 508 164 124 120 105 139 71 1 0 0 0 0 0 0 0 0 0 0 7 86 253 351 405 527 516 546 489 665 465 289 227 358 486 222 215 283 26 89 326 729 828 1133 1083 552 681 480 95 14 6 106 nan
2793 2915 2309 2382 2441 2179 1844 1853 1654 1646 1943 1881 2208 2065 3143 3791 3848 3936 3855 4094 3937 3986 4204 4265 4476 3977 4088 4252 4499 4956 4958 5078 5477 5299 5476 5595 5511 5478 5266 5165 5080 5018 5023 5079 5218 5296 5229 5146 5139 5190 5284 5202 5076 5041 5102 5154 5133 5084 5051 5030 5034 5042 5088 5081 5101 5034 4943 4912 4897 4909 4938 4947 4942 4966 5026 5115 5155 5056 4938 5093 5056 4976 4878 4865 4912 5053 5062 4912 4842 4904 4887 4821 4696 4630 4628 4611 4683 4682 4572 4509 4489 4552 4686 4620 4661 4606 4552 4468 4386 4401 4390 4359 4320 4311 4380 4349 4451 4523 4365 4436 4251 3949 3587 3768 3836 3906 3790 3720 3703 3746 3636 3508 3291 3241 3473 3127 2573 2686 2372 2068 1931 1903 1753 1682 1612 1709 1924 1932 1367 1237 1258 1223 1183 1123 1091 1270 1115 926 835 618 518 499 434 446 440 497 741 829 626 516 408 273 161 121 112 102 87 81 76 72 70 66 59 53 49 44 40 37 39 45 86 191 179 113 71 66 80 41 9 1 0 0 0 0 0 0 0 0 0 0 0 0 0 0 0 0 0 0 0 0 0 0 0 0 0 4 9 41 77 208 259 207 146 81 109 70 43 17 4 0 0 0 0 0 0 0 0 0 0 23 149 290 465 584 613 483 356 256 271 305 270 215 303 288 219 216 308 232 13 28 215 431 433 527 358 105 117 273 29 1 4 67 nan
1756 1764 1335 1880 1987 1448 1364 1129 1052 1165 1249 1574 1503 1698 2688 3028 3496 3190 2909 3163 3440 3648 4039 4269 4290 4210 3861 4499 4670 4589 4561 4409 5415 5465 5271 5488 5496 5422 5298 5277 5313 5323 5282 5251 5248 5281 5172 5158 5140 5169 5422 5352 5187 5201 5219 5118 5058 5129 5240 5250 5179 5238 5273 5263 5244 5134 5059 5003 5004 5009 4957 5079 5129 5031 4978 4963 4934 4901 4907 5097 5188 5020 4918 4894 4950 5115 5124 4952 4872 4850 4860 4867 4786 4763 4592 4489 4468 4575 4614 4507 4493 4457 4705 4628 4625 4666 4643 4592 4504 4466 4378 4332 4339 4291 4272 4313 4387 4598 4634 4721 4316 4095 3972 3855 3796 3851 3779 3608 3700 3752 3609 3459 3264 3158 3164 3047 2776 2876 2652 2210 1958 1821 1676 1547 1479 1608 1731 1881 1497 1045 1173 1323 1276 1133 996 933 749 555 451 380 368 357 429 691 602 551 619 652 601 466 306 203 167 258 264 167 109 86 76 71 66 67 65 58 52 48 45 41 40 36 52 78 59 44 47 58 38 10 18 13 -0 0 0 0 0 0 0 0 0 0 0 0 0 0 0 0 0 0 0 0 0 0 2 2 1 7 12 36 131 173 104 44 49 49 15 33 22 0 6 9 0 0 0 0 0 0 0 11 46 272 567 468 360 394 468 329 204 116 109 53 30 94 165 80 132 307 318 84 3 10 42 71 63 93 46 2 122 203 22 20 1 2 nan
1616 1228 895 835 938 1146 955 856 742 631 910 1013 1171 1417 1462 1985 2488 2533 2057 2370 3031 3539 3945 4272 4170 3887 3810 3850 4329 4942 4966 4563 4689 5414 5250 5555 5474 5502 5521 5540 5462 5388 5383 5303 5475 5412 5412 5471 5251 5252 5318 5282 5359 5378 5267 5099 5078 5155 5049 5242 5173 5242 5304 5448 5465 5455 5309 5185 5053 5008 5011 5098 5143 5020 4961 4919 4911 4875 4910 5074 5270 5188 5150 5069 4953 4926 4929 4844 4811 4779 4780 4748 4700 4768 4706 4712 4583 4490 4616 4611 4629 4560 4523 4521 4566 4681 4713 4690 4631 4566 4521 4477 4472 4393 4339 4328 4268 4370 4569 4682 4457 4253 4118 4029 3893 3764 3751 3770 3779 3633 3522 3499 3401 3338 3232 3079 2886 2666 2752 2572 2433 2166 2020 1663 1507 1469 1661 1542 1360 998 835 884 922 760 671 578 460 400 431 475 708 982 907 890 674 770 978 687 476 422 319 265 405 506 381 239 142 96 70 65 61 60 59 57 53 50 48 46 43 38 42 49 33 30 36 45 23 6 13 4 0 0 -0 0 0 0 0 0 0 0 0 0 0 0 0 0 0 0 0 0 0 0 1 1 1 6 26 44 76 46 39 23 12 1 1 1 0 0 28 25 0 0 0 0 1 20 36 174 349 601 540 283 341 298 175 81 38 29 44 8 19 32 25 122 222 497 476 162 51 7 3 2 0 3 2 0 8 5 5 2 0 0 nan
2411 1932 1305 931 722 791 776 508 359 347 424 616 849 956 1350 1478 2001 2635 2132 1714 2044 2985 3702 4146 4416 4205 4451 4400 4226 4212 4244 4519 4660 4902 4972 5367 5370 5371 5391 5601 5460 5651 5471 5273 5377 5592 5402 5288 5315 5406 5164 5134 5158 5158 5185 5174 5014 5093 5239 5263 5107 5005 4989 5176 5389 5401 5246 5277 5228 5127 5113 5058 5044 5104 5069 5032 5124 5067 5080 5213 5189 5189 5331 5314 5103 4935 4886 4788 4726 4715 4705 4626 4578 4575 4585 4618 4613 4710 4697 4720 4651 4714 4737 4479 4479 4707 4648 4606 4600 4601 4609 4705 4678 4584 4440 4375 4290 4264 4387 4512 4560 4428 4241 4129 4148 3957 3782 3743 3809 3818 3650 3633 3556 3435 3470 3488 3220 2841 2602 2758 2622 2023 1753 1705 1725 1672 1728 1749 1556 1499 1291 1005 742 591 487 444 414 463 663 974 1428 1380 1204 1210 1083 1025 863 814 866 610 418 366 364 410 295 194 109 78 65 61 56 55 53 51 47 45 43 42 41 47 42 38 30 26 30 25 10 5 4 2 2 1 0 -0 0 0 0 0 0 0 0 0 0 0 0 0 0 0 0 0 0 1 1 0 0 4 7 16 19 8 4 2 0 0 0 0 0 3 47 4 0 0 0 0 7 123 190 268 422 402 184 93 119 57 20 9 74 171 139 40 46 30 120 425 630 820 443 119 33 3 0 0 0 0 0 0 0 2 5 6 0 0 nan
2776 2677 2503 2300 1766 1403 971 423 366 403 346 358 535 778 1356 1439 1669 2165 2633 2476 1776 2095 2991 3801 4337 4660 4824 4872 4752 4528 4243 4323 4248 5032 4923 4987 5390 5317 5310 5452 5444 5468 5165 4992 4918 5040 5084 4977 5014 5228 5264 5086 5105 5055 5052 5055 5100 5242 5199 5048 4979 5048 5099 5033 5093 5064 5057 5059 5070 4979 5060 5140 5129 5203 5133 5107 5218 5401 5455 5324 5170 5107 5298 5346 5292 5007 5030 5029 4875 4756 4725 4619 4547 4561 4577 4558 4560 4734 4788 4872 4828 4844 4789 4760 4456 4592 4665 4571 4617 4602 4592 4711 4759 4671 4531 4476 4424 4306 4398 4299 4270 4287 4350 4278 4148 4130 4173 4010 3697 3651 3552 3538 3489 3452 3196 3036 2861 2703 2607 2358 2270 1891 1770 1749 1553 1415 1375 1456 1568 1691 1892 2020 1941 1449 1154 1093 1022 1115 1129 1303 1173 1043 1098 1066 1044 929 1142 1172 846 735 742 559 331 201 163 109 83 65 58 56 53 50 48 45 42 40 37 37 40 65 39 34 30 26 24 19 12 8 6 4 4 1 -0 -0 -0 0 0 0 0 0 0 0 0 0 0 0 0 0 0 0 0 1 1 0 0 0 0 3 2 1 1 0 0 0 0 0 0 1 11 0 2 0 0 5 19 54 51 50 86 129 60 13 84 188 168 276 448 647 493 182 10 14 207 603 662 544 156 1 0 0 0 0 0 0 0 0 0 0 0 16 0 0 nan
2301 1799 1640 2012 1956 1582 1084 702 681 507 405 407 500 715 846 1075 1340 1389 2022 3222 2423 1794 2077 3308 3665 4409 4925 4818 4567 4549 4674 4916 4578 4883 5341 5133 4826 4872 4827 4785 5030 4997 4853 4773 4913 5075 5159 5133 5267 5149 5337 5371 5200 5153 5245 5299 5110 4958 4811 4808 4957 5050 5069 4996 4830 4887 4985 5017 4937 4945 5082 5183 5239 5303 5181 5155 5141 5400 5405 5244 5083 5052 5131 5168 5163 5075 5122 5072 4883 4770 4673 4663 4655 4776 4807 4716 4578 4664 4743 4911 5046 5020 4817 4656 4585 4554 4578 4541 4539 4614 4567 4663 4650 4611 4565 4613 4546 4399 4334 4225 4212 4191 4213 4266 4168 4045 4035 3891 3669 3579 3443 3454 3449 3528 3381 3392 3206 3008 2595 2252 2254 1910 1684 1506 1272 1165 1259 1572 1635 1449 1635 1858 2047 1759 1856 1732 1547 1509 1402 1362 1201 1096 1011 1043 1105 1050 1115 1165 1074 1011 947 593 275 155 121 91 70 61 55 52 50 46 43 41 38 36 33 32 32 39 29 26 25 23 21 19 16 12 9 5 2 0 0 0 0 0 0 0 0 0 0 0 0 0 0 0 0 0 0 0 0 0 0 0 0 0 0 0 1 0 0 0 0 0 0 0 0 0 0 1 8 1 5 67 112 76 5 21 12 8 16 43 267 658 771 634 620 858 612 184 12 3 60 320 408 156 8 0 0 0 0 0 0 0 0 0 0 0 0 4 0 0 nan
1970 1345 1194 1242 1256 1073 739 541 482 348 415 463 487 485 544 626 730 1013 1462 2622 2907 2607 2361 2980 2810 3847 4462 4810 4739 4598 4922 4966 5082 4952 5210 5363 4920 4938 4957 4767 4473 4622 4620 4681 4915 5082 5039 5136 5268 5241 5370 5212 5049 5094 5339 5252 4976 4874 4850 4983 4991 5172 5289 5312 4984 4978 5036 5213 5198 4924 5010 5146 5294 5266 5229 5124 5102 5172 5181 5061 5007 5020 5031 5044 5247 5500 5428 5214 5094 4945 4938 4849 4774 4764 4760 4743 4724 4706 4767 4756 5002 5080 4956 4883 4826 4642 4691 4526 4456 4582 4551 4590 4496 4435 4556 4623 4670 4633 4560 4365 4325 4265 4266 4306 4315 4176 4074 3901 3782 3559 3464 3476 3470 3505 3535 3579 3392 3065 2916 2363 2060 1921 1808 1443 1255 1106 1316 1631 1786 1315 1290 1327 1357 1327 1428 1692 1199 1133 1141 1083 1018 1061 956 831 710 708 739 707 850 834 531 391 305 225 136 92 73 62 55 48 46 43 41 38 35 34 32 30 28 27 25 23 21 23 19 15 15 13 7 4 2 2 1 1 0 0 0 0 0 0 0 0 0 0 0 0 0 0 0 0 0 0 0 0 0 0 44 227 131 9 0 0 0 0 0 0 0 0 1 9 25 96 224 158 232 351 203 159 43 3 26 201 488 727 359 129 104 325 236 9 0 0 3 79 115 20 0 0 0 0 0 0 0 0 0 0 0 0 0 0 0 0 nan
1675 1316 1072 804 823 748 690 578 392 366 381 412 404 464 496 440 455 777 915 1198 1462 1834 1937 2396 2246 3153 3741 4485 5035 4932 4817 4840 4939 5099 5170 5029 4915 4989 5291 5322 4925 4878 4792 4659 4586 4822 4870 4834 4819 4871 5002 4848 4818 4844 4965 5005 4756 4650 4741 4999 5048 5112 5295 5172 5203 5263 5217 5213 5076 4972 5010 5098 5045 5035 5069 5154 5180 4969 4975 5031 4978 5010 5036 5062 5207 5451 5491 5304 5149 5126 5133 4965 4869 4786 4743 4789 4886 4870 4774 4661 4678 4759 4821 4945 4860 4743 4658 4544 4498 4287 4406 4412 4383 4280 4363 4482 4718 4706 4569 4446 4415 4367 4291 4169 4163 4336 4265 3955 3832 3596 3625 3528 3500 3529 3723 3792 3453 3065 2512 2500 2177 1798 1830 1639 1359 1142 1117 1075 1135 954 747 690 751 826 1012 1372 1282 963 1113 1110 1024 826 922 981 770 505 461 373 351 451 422 199 187 183 172 185 117 66 58 48 44 41 40 36 34 31 30 28 26 25 22 21 19 23 18 14 12 10 7 4 2 2 2 2 1 0 0 0 0 0 0 0 0 0 0 0 0 0 0 0 0 0 0 0 0 1 66 249 82 3 0 0 0 0 0 0 0 3 6 34 122 148 116 89 335 492 631 279 53 10 9 168 373 416 132 2 0 26 29 0 0 0 0 0 0 0 0 0 0 0 0 0 0 0 0 0 0 0 0 0 14 0 nan
1718 1265 831 516 414 502 621 475 353 346 416 435 483 502 453 335 283 425 551 580 629 1048 1511 2174 2376 2833 3483 3930 4710 5095 5083 4955 5036 5266 5178 5238 4709 4760 4706 5017 4909 5236 5127 4776 4775 5018 4862 4743 4706 4618 4623 4616 4637 4650 4604 4806 4782 4731 4860 4883 4981 4960 4940 4954 5046 5131 5024 5093 4812 4915 4956 4996 4978 4987 4961 5101 4983 4982 5032 5048 4935 5024 5135 5071 5110 5209 5176 5082 5166 5258 5294 5119 5028 4901 4768 4772 4778 4796 4831 4837 4749 4622 4647 4665 4724 4639 4516 4490 4495 4295 4262 4510 4537 4395 4321 4345 4463 4542 4528 4451 4420 4304 4290 4244 4056 4258 4106 3841 3806 3730 3714 3658 3664 3657 3742 3753 3778 3487 2626 2099 1797 1646 1677 1489 1210 1024 1013 984 838 663 672 670 723 815 728 813 916 905 940 883 709 666 610 568 640 478 368 275 231 182 181 143 126 138 189 208 148 91 58 48 43 41 38 35 32 30 28 26 25 23 24 23 23 29 25 34 25 13 6 5 3 2 2 3 3 0 0 0 0 0 0 0 0 0 0 0 0 0 0 0 0 0 0 0 0 0 0 0 0 0 0 0 0 0 0 0 1 19 9 11 76 171 59 55 224 616 704 371 208 49 1 112 236 129 15 0 0 0 0 0 0 0 0 0 0 0 0 0 0 0 0 0 0 0 0 0 0 0 0 0 16 0 nan
2164 1596 1010 461 301 361 289 238 389 471 603 622 597 533 380 268 251 269 287 282 328 502 909 1662 2174 1999 2659 3907 4297 4767 4858 5153 5170 5216 5092 4934 5074 4801 5052 4729 4690 4992 5273 5090 5178 5526 5013 4802 4704 4676 4604 4552 4583 4772 4702 4847 4770 4668 4778 5011 5053 5099 5029 5033 5062 5106 4998 4916 4896 4951 4980 5063 4988 5011 5020 4991 4968 4991 5003 4964 4991 5073 5086 4986 4967 4960 4929 4948 5061 5169 5275 5244 5269 5152 5035 4896 4821 4803 4851 4906 4866 4690 4588 4599 4567 4487 4405 4371 4560 4569 4468 4462 4669 4698 4464 4240 4342 4276 4444 4347 4327 4347 4328 4267 4058 4000 4018 3847 3706 3663 3733 3693 3821 3836 3696 3589 3769 3395 2856 2512 1980 1529 1294 1030 947 1034 1247 1474 1437 1316 1378 1335 1290 1110 775 743 597 536 607 736 764 696 632 450 351 296 366 256 173 131 112 107 112 124 161 226 215 125 73 56 45 41 38 35 32 28 27 25 27 28 44 69 55 44 69 78 35 17 8 5 4 3 3 4 4 1 0 0 0 0 0 0 0 0 0 0 0 0 0 0 0 0 0 0 0 0 0 0 0 0 0 0 0 0 0 4 35 14 2 2 45 60 122 36 132 603 699 592 219 38 0 8 63 37 0 0 0 0 0 0 0 0 0 0 0 0 0 0 0 0 0 0 0 0 0 0 0 0 0 0 0 0 nan
1996 1374 904 425 350 407 328 210 291 588 559 344 257 232 215 217 220 228 236 246 268 326 431 609 804 1369 2346 3252 4125 4282 4504 5014 5063 5160 5363 5112 5075 5239 5363 5150 4625 4543 4693 4814 4942 4996 4971 4994 4851 4677 4756 4666 4597 4713 4670 4764 4689 4697 4703 4932 5007 5113 5077 5065 5042 5000 4891 4897 4914 5132 5230 5226 5245 5120 5152 4974 4834 4902 4830 4865 4866 4838 4897 4910 4836 4820 4911 4946 4967 4985 5053 5079 5076 5074 5003 5024 4957 4987 5038 4945 4841 4892 4605 4519 4445 4342 4259 4269 4362 4577 4650 4519 4308 4297 4445 4428 4448 4226 4334 4376 4392 4342 4425 4305 4097 3916 3946 3794 3794 3696 3688 3819 4133 3885 3632 3460 3637 3012 2127 1886 1808 1380 1117 922 811 1025 1275 1336 1258 1225 1277 1290 1223 1173 930 784 713 694 707 852 816 868 870 668 668 456 300 205 147 121 97 91 126 184 247 210 172 113 77 63 50 42 37 34 31 30 24 23 26 34 41 75 62 67 68 52 30 34 23 8 5 5 5 6 4 3 1 0 0 0 0 0 0 0 0 0 0 0 0 0 0 0 0 0 0 0 0 0 0 0 0 0 0 0 0 2 12 1 0 0 5 46 62 66 439 892 728 309 42 0 0 0 0 0 0 0 0 0 0 0 0 0 0 0 0 0 0 0 0 0 0 0 0 0 0 0 0 0 0 0 2 0 nan
1321 939 456 264 325 398 256 197 198 218 202 185 191 198 202 206 213 221 229 235 247 260 270 303 437 776 1650 2657 3499 3926 3712 4787 5183 4717 4874 4986 4734 5216 4765 4946 5129 4713 5127 5002 4828 4789 4895 5095 4925 4714 4797 4920 4946 5015 5053 4787 4709 4608 4655 4679 4694 4739 4765 4909 4866 4783 4781 4668 4704 5038 5038 5216 5049 4972 4992 4910 4749 4769 4700 4669 4697 4693 4755 4740 4718 4705 4822 4841 4814 4808 4785 4811 4797 4864 4778 4675 4757 4936 4967 4995 4960 4967 4782 4608 4523 4504 4435 4209 4223 4262 4412 4517 4604 4540 4188 4323 4307 4250 4279 4227 4205 4146 4133 4259 4244 3978 4001 3865 3701 3613 3828 3991 4047 3625 3366 3540 3295 2709 2048 1530 1328 1299 991 810 727 831 882 888 816 955 994 984 982 1094 1088 1293 1290 1179 1198 1045 759 605 602 752 823 831 537 232 128 104 94 95 139 236 308 283 202 110 81 63 55 46 43 44 40 43 29 29 29 38 53 58 55 82 54 22 17 25 25 12 8 6 7 6 5 4 4 1 0 0 0 0 0 0 0 0 0 0 0 0 0 0 0 0 0 0 0 0 0 0 0 0 0 0 0 0 0 0 0 0 0 43 54 229 444 616 575 217 6 0 0 0 0 0 0 0 0 0 0 0 0 0 0 0 0 0 0 0 0 0 0 0 0 0 0 0 0 0 0 0 0 0 nan
1088 852 321 220 200 188 186 190 190 188 178 180 189 192 195 203 209 216 220 223 231 240 253 259 342 489 671 1008 1702 2407 2688 4124 5040 4757 4631 4440 4912 5030 4557 4457 4992 5069 5055 5376 5049 4800 4989 5026 4883 4737 4870 5196 5181 5055 5078 4941 4852 4790 4763 4824 4722 4668 4747 4887 4992 4866 4757 4672 4631 4618 4623 4669 4663 4722 4653 4690 4600 4584 4592 4613 4640 4680 4725 4728 4723 4708 4726 4669 4795 4962 4878 4756 4651 4630 4710 4638 4527 4684 4848 4918 4989 4981 5007 4960 4629 4384 4363 4293 4172 4129 4304 4353 4375 4414 4269 4187 4411 4545 4325 4204 4239 4193 4136 4148 4163 4054 4172 4015 3883 3609 3802 4015 3857 3602 3207 3277 3043 2273 1619 1372 1124 873 753 692 677 730 697 683 712 763 747 842 1011 971 1208 1336 1584 1724 1805 1507 1086 844 844 947 867 735 650 646 309 113 90 124 134 157 164 194 309 192 137 88 74 65 74 76 68 54 39 38 37 52 48 47 48 49 32 27 25 40 39 16 10 5 7 5 4 4 4 3 2 0 0 0 0 0 0 0 0 0 0 0 0 0 0 0 0 0 0 0 0 0 0 0 0 0 0 0 0 0 0 0 1 6 114 273 426 437 250 32 0 0 0 0 0 0 0 0 0 0 0 0 0 0 0 0 0 0 0 0 0 0 0 0 0 0 0 0 0 0 0 0 0 0 nan
1521 1249 384 209 183 172 178 180 182 181 171 174 179 185 193 200 205 209 212 219 227 237 247 246 317 524 610 739 1025 1473 2133 3442 4330 4439 4435 4020 4529 4468 4358 4212 4493 5171 4895 5280 5343 5073 5099 5174 5036 5004 5061 5176 5137 4903 4986 5441 5083 4974 4954 4922 5023 5161 5140 5152 5133 5021 4829 4865 4812 4691 4668 4736 4768 4661 4769 4675 4572 4560 4562 4585 4637 4743 4755 4801 4920 4827 4794 4746 4747 4824 4782 4850 4652 4646 4887 4897 4587 4683 4657 4716 4916 4745 4876 4974 4896 4747 4420 4311 4297 4195 4413 4556 4354 4320 4202 3967 4329 4543 4503 4375 4172 4210 4088 4089 4040 4058 3978 3857 3797 3519 3870 3995 3970 3937 3467 3162 2691 2201 1467 969 658 578 610 615 572 518 536 512 487 516 588 778 870 845 1046 1423 1584 1772 1700 1427 1421 1228 1456 1615 1249 1005 906 876 443 121 84 140 186 167 111 108 167 248 217 180 179 165 180 295 276 124 66 53 55 46 23 29 40 48 28 21 35 24 38 12 7 7 8 7 6 3 3 2 2 0 0 0 0 0 0 0 0 0 0 0 0 0 0 0 0 0 0 0 0 0 0 0 0 0 0 0 0 0 0 2 15 4 70 172 221 281 295 65 0 0 0 0 0 0 0 0 0 0 0 0 0 0 0 0 0 0 0 0 0 0 0 0 0 0 0 0 0 0 0 0 0 0 nan
1834 1551 545 217 170 165 168 169 172 170 162 166 175 184 190 195 198 202 209 218 223 230 231 235 261 364 480 675 896 1537 2158 2339 2661 3473 3789 4403 4984 4726 4632 4209 4089 4662 5125 4942 5389 5407 5254 5361 5309 5339 5066 5012 4879 4800 5047 5305 4899 4648 4655 4812 5058 5220 5328 5144 5052 5119 5147 5177 5007 5016 4860 4996 4863 4877 5163 4862 4652 4651 4746 4790 4751 4825 4808 4825 4778 4692 4813 4645 4614 4608 4647 4735 4662 4626 4782 4780 4693 4683 4596 4506 4691 4670 4690 4655 4645 4724 4574 4446 4246 4228 4152 4424 4570 4295 4263 4070 4025 4050 4152 4431 4433 4283 4233 4048 3951 4129 4162 4216 4115 3371 3944 4039 3962 3620 3092 2786 2890 2150 932 584 515 506 537 544 477 422 442 458 490 495 553 619 638 811 853 985 1331 1496 1299 1110 1417 1648 1831 1767 1263 1257 911 839 534 216 105 82 179 293 174 110 92 110 159 170 199 266 364 431 368 319 169 105 53 32 15 15 45 37 13 16 18 25 26 10 9 7 9 6 5 4 4 2 2 0 0 0 0 0 0 0 0 0 0 0 0 0 0 0 0 0 0 0 0 0 0 0 0 0 0 0 0 0 0 1 4 2 47 115 154 158 127 19 0 0 0 0 0 0 0 0 0 0 0 0 0 0 0 0 0 0 0 0 0 0 0 0 0 0 0 0 0 0 0 0 0 0 nan
1775 1530 657 242 163 158 159 159 162 158 156 162 173 180 185 189 193 200 206 211 213 218 219 232 242 272 358 430 783 1316 1680 2068 2402 3118 3825 4727 4953 4924 5158 5030 4621 4370 4795 4922 4919 5320 5508 5500 5430 5379 5297 5243 4943 4969 5069 5146 5038 4628 4665 4755 4857 4865 5013 4796 4802 4953 5094 5029 4954 5107 4944 5110 4943 4985 5000 5029 4873 4881 4897 4978 4983 5050 4930 4698 4739 4831 4750 4684 4657 4690 4676 4877 4919 4999 5080 5101 4964 4793 4570 4475 4729 4574 4534 4634 4488 4494 4562 4398 4363 4103 4124 4496 4547 4274 4357 4077 3906 4087 4289 4345 4480 4525 4197 4305 3927 4010 4312 4231 4101 3370 3834 3761 4247 4050 3314 2347 1986 1049 573 536 479 461 471 466 423 383 381 413 443 447 456 475 544 651 640 507 696 951 955 861 818 1101 1120 1158 891 1172 929 512 369 268 128 70 129 276 170 87 61 77 149 82 101 128 328 456 701 559 471 336 205 131 40 25 16 16 17 11 13 19 34 81 86 10 6 11 5 4 6 7 3 0 0 0 0 0 0 0 0 0 0 0 0 0 0 0 0 0 0 0 0 0 0 0 0 0 0 0 0 0 0 0 0 2 37 76 107 154 13 2 0 0 0 0 0 0 0 0 0 0 0 0 0 0 0 0 0 0 0 0 0 0 0 0 0 0 0 0 0 0 0 0 0 0 nan
1653 1449 777 291 157 150 151 150 152 147 151 160 169 174 179 183 190 192 194 198 202 211 220 231 242 251 271 305 560 1180 1699 2143 2087 2113 2768 3899 4105 4831 5462 5562 5329 4759 4600 4643 4677 4798 5041 5294 5373 5407 5360 5573 5440 5459 5281 5509 5275 4953 4898 4967 4993 4948 4798 4684 4721 4785 4926 4739 4959 4808 4825 4889 4991 5068 4881 4903 4986 4913 4858 4832 4788 4853 4914 4856 4871 4878 4934 5096 4983 5043 5032 5083 5025 5078 5101 5060 5124 5066 4943 4869 4500 4490 4433 4383 4388 4508 4490 4658 4638 4445 4063 4363 4567 4432 4160 4224 4036 4167 4328 4350 4390 4488 4051 4295 4260 3926 4153 4122 3598 3419 3631 3620 3947 3767 2538 1465 802 593 492 557 477 440 430 416 397 362 345 384 378 364 421 445 518 558 521 486 498 678 719 688 864 944 919 740 751 823 656 488 209 141 107 57 82 149 103 50 35 42 68 57 49 122 277 330 481 695 778 616 299 72 38 81 27 61 54 24 32 47 57 91 92 20 6 5 4 5 5 6 4 1 0 0 0 0 0 0 0 0 0 0 0 0 0 0 0 0 0 0 0 0 0 0 0 0 0 0 0 0 0 0 0 1 0 4 49 27 0 0 0 0 0 0 0 0 0 0 0 0 0 0 0 0 0 0 0 0 0 0 0 0 0 0 0 0 0 0 0 0 0 0 0 0 nan
1418 1402 843 330 153 143 143 143 141 141 147 155 164 169 175 177 180 183 188 193 203 214 224 234 246 257 266 285 367 775 1281 1738 1612 1801 1879 2312 3387 4170 4756 4477 4620 4737 4991 4826 4714 4762 4679 4712 4965 5218 5382 5465 5592 5478 5521 5452 5423 5420 5099 4986 4967 4890 4922 4947 4809 4890 4958 4925 5051 5026 5043 5048 5116 5038 5017 5205 4971 4965 5035 5055 4955 4925 4815 4762 4797 4900 5010 5082 5126 5214 5081 4995 5039 5110 4957 4991 5102 5022 4894 4989 4909 4864 4812 4483 4297 4463 4408 4599 4704 4678 4370 4034 4285 4460 4265 4319 4336 4058 4462 4579 4459 4326 4106 4416 4216 3948 4108 4093 3673 3380 3953 3736 3272 3259 1967 906 574 523 504 533 465 423 388 364 379 338 361 427 364 428 489 524 554 603 539 529 632 766 1120 1229 1159 1213 1249 1131 1003 574 288 219 135 70 72 51 39 50 37 29 26 26 28 28 30 105 133 214 333 463 488 323 78 41 33 33 53 112 105 127 175 134 184 147 92 68 7 6 6 6 4 2 1 0 0 2 1 0 0 0 0 0 0 0 0 0 0 0 0 0 0 0 0 0 0 0 0 0 0 0 0 0 0 0 1 3 2 1 1 24 2 0 0 0 0 0 0 0 0 0 0 0 0 0 0 0 0 0 0 0 0 0 0 0 0 0 0 0 0 0 0 0 0 0 0 0 nan
1332 1265 814 364 147 135 135 134 134 140 147 154 159 163 166 169 175 180 187 195 205 213 222 231 242 251 259 268 285 344 531 713 820 1267 1675 1682 2104 2144 2614 2890 4053 5020 5012 5112 5077 4725 5013 5070 5080 5330 5166 5076 5111 5281 5245 5294 5478 5603 5432 5371 5427 5193 5066 4935 4935 5018 5116 5184 5000 5137 5197 5217 5294 5297 5273 5153 5059 5027 5142 5196 5086 4950 4921 5164 5157 4865 4726 4878 4928 5107 5079 5057 5136 5103 5102 5083 4942 4658 4565 4685 4617 4731 4818 4822 4800 4781 4527 4289 4713 4932 4691 4412 4230 4263 4312 4357 4384 4137 4420 4636 4621 4424 4057 3980 4073 3920 4136 3991 4139 3555 3595 3357 2357 2042 1130 576 497 494 542 468 436 419 359 330 340 317 338 375 373 528 494 511 535 477 541 906 1101 1296 1455 1044 901 1078 1070 1066 1119 613 256 105 73 46 43 35 32 31 28 27 27 29 29 31 23 36 71 174 298 321 218 73 42 36 46 146 271 253 239 336 344 263 322 397 233 58 9 7 7 4 1 0 0 0 3 2 0 0 0 0 0 0 0 0 0 0 0 0 0 0 0 0 0 0 0 0 0 0 0 0 0 0 0 0 0 1 18 131 27 26 1 0 0 0 0 0 0 0 0 0 0 0 0 0 0 0 0 0 0 0 0 0 0 0 0 0 0 0 0 0 0 0 0 0 0 0 nan
1426 1339 811 282 131 128 126 127 130 137 142 147 150 156 160 165 172 180 190 196 204 210 219 227 236 242 248 254 264 279 294 331 467 666 1071 1240 1339 1594 1712 2393 3853 4308 4026 4441 4623 4692 4817 4928 5038 5198 5282 5013 4831 4778 4806 4823 5077 5402 5447 5351 5509 5555 5454 5313 5251 5184 5358 5051 5209 5198 5291 5242 5241 5208 5296 5174 5213 5190 5194 5315 5305 5192 5478 5329 4941 4880 4751 4792 4917 5071 5115 5163 5082 4872 4874 4938 4875 4695 4486 4200 3776 3887 4217 4373 4457 4759 4733 4639 4600 4565 4415 4625 4571 4207 4378 4395 4290 3964 4059 4588 4553 4522 4418 4182 3763 3654 4050 3999 4144 3745 3145 2983 1735 1195 756 568 480 491 488 423 412 430 363 309 296 312 291 331 493 463 477 456 476 456 907 1350 1272 1272 1136 767 1082 1254 1255 1255 1134 784 444 171 62 38 34 29 29 29 27 26 24 25 32 28 37 47 48 85 241 202 60 31 21 56 176 317 390 361 421 400 490 626 398 344 171 60 22 12 6 5 13 8 1 10 11 3 1 0 0 0 0 0 0 0 0 0 0 0 0 0 0 0 0 0 0 0 0 0 0 0 0 0 0 0 0 0 20 264 44 3 0 0 0 0 0 0 0 0 0 0 0 0 0 0 0 0 0 0 0 0 0 0 0 0 0 0 0 0 0 0 0 0 0 0 0 0 nan
1293 1208 506 173 121 120 119 122 126 132 137 142 146 152 159 167 173 181 188 194 200 208 216 221 228 234 240 245 255 263 268 278 296 369 531 1030 1299 1781 1794 1854 1977 2110 2247 2925 3454 4674 4755 4564 4039 4292 4884 5078 5092 4821 4658 4705 4823 4886 5239 5457 5559 5648 5545 5563 5447 5400 5410 5201 5340 5286 5282 5097 5085 5141 5187 5203 5097 5002 5148 5264 5301 5425 5211 4849 4809 4665 4379 4495 4488 4744 5028 5017 4826 4698 4674 4457 4339 4392 4535 4368 4002 3457 3541 3796 4056 4474 4730 4924 4816 4516 4132 4404 4774 4240 4175 4300 4250 3893 4317 4783 4692 4519 4300 4266 4057 3646 3969 3932 4133 3757 2735 2064 1282 925 680 546 448 471 426 406 402 412 401 343 309 280 289 400 493 417 417 403 436 704 1141 1289 1092 1064 1021 891 1304 1277 1264 1241 894 667 429 210 70 38 34 30 28 27 25 24 27 29 33 58 123 122 81 53 63 30 18 20 88 199 364 391 377 470 461 307 496 572 350 228 154 160 85 64 51 80 118 34 19 32 26 4 0 0 0 0 0 0 0 0 0 0 0 0 0 0 0 0 0 0 0 0 0 0 0 0 0 0 0 1 4 5 0 0 0 0 0 0 0 0 0 0 0 0 0 0 0 0 0 0 0 0 0 0 0 0 0 0 0 0 0 0 0 0 0 0 0 0 0 0 0 0 nan
1082 808 229 123 113 113 113 117 122 128 133 140 147 156 161 167 172 179 185 191 198 205 211 217 223 228 235 240 247 251 256 261 260 249 319 620 927 1329 1295 1530 1490 1416 1441 1626 2318 3515 3531 4041 3146 2992 4080 4606 5187 5167 4882 4722 4786 4787 4872 5207 5310 5285 5400 5533 5411 5549 5293 5475 5427 5270 5313 5144 5000 5132 5186 5021 5132 4932 4831 4985 5047 5109 5095 5117 4755 4457 4266 4336 4549 4799 4973 5008 5097 5140 4705 4576 4377 4217 4129 4328 4159 3986 3083 3380 3997 4219 4501 4959 5019 5215 4736 4111 4565 4637 4095 4162 4105 3877 4517 4552 4368 4523 4298 4157 4276 3841 4103 4053 4453 3820 2433 2020 1511 1283 895 569 431 442 464 531 438 372 379 406 387 335 366 348 362 371 409 517 852 1077 1210 911 943 886 918 916 1106 914 878 880 683 409 318 133 57 37 35 34 42 29 26 32 60 111 151 200 217 142 127 129 44 58 35 88 124 225 211 242 363 319 236 352 377 355 345 294 319 292 94 229 177 302 287 58 80 27 11 2 0 0 0 0 0 0 0 0 0 0 0 0 0 0 0 0 0 0 0 0 0 0 0 0 0 0 0 1 9 4 0 0 0 0 0 0 0 0 0 0 0 0 0 0 0 0 0 0 0 0 0 0 0 0 0 0 0 0 0 0 0 0 0 0 0 0 0 0 0 0 nan
855 471 142 107 106 107 109 114 120 127 135 142 148 154 160 165 171 178 183 190 196 202 208 215 220 225 229 234 239 240 243 246 247 236 248 278 376 578 1027 1511 1602 1332 1329 1499 1757 2084 2274 2765 2450 2866 3493 4340 4640 4718 5015 5097 5165 4810 4795 4795 4950 4902 5056 5211 5114 5160 5084 5075 5030 5045 5166 5048 4844 4941 4664 4767 4876 4573 4590 4654 5024 4889 4659 5138 4602 4126 4541 4758 4861 4937 4822 5065 5141 5043 4979 4811 4726 4564 4237 3728 3900 3978 2920 2685 3750 4306 4387 4725 4807 5105 5019 4361 4249 4596 4351 3976 4184 3890 4231 4209 4251 4379 4507 4297 4189 3986 4084 4242 4431 3652 2288 2002 2055 2047 1548 736 414 412 479 473 372 337 362 379 389 373 348 314 354 568 680 810 1228 972 856 802 840 954 724 737 835 594 588 644 529 372 252 111 64 37 33 33 41 29 58 126 228 172 284 314 320 281 233 192 128 181 56 88 66 165 155 272 422 424 485 433 276 269 251 229 366 204 228 350 196 273 334 119 96 21 1 0 0 0 0 0 0 0 0 0 0 0 0 0 0 0 0 0 0 0 0 0 0 0 0 0 0 0 0 2 4 0 0 0 0 0 0 0 0 0 0 0 0 0 0 0 0 0 0 0 0 0 0 0 0 0 0 0 0 0 0 0 0 0 0 0 0 0 0 0 0 0 nan
662 288 116 98 100 102 108 113 121 127 134 140 145 151 158 166 178 188 188 191 196 201 206 211 215 220 224 229 231 230 233 234 237 228 230 228 232 262 401 790 1162 1196 1059 1455 1558 1487 1591 2290 2540 3017 3410 4146 4687 4716 4940 5372 5456 4681 5030 4774 4809 4782 4801 4839 4852 4932 5110 5024 4786 4748 4658 4603 4349 4473 4316 4287 4133 4082 4156 4423 4640 4680 4679 4558 4174 4094 4091 4114 4144 4315 4515 4650 4680 4723 4721 4377 4296 4022 3856 3810 3656 2651 2308 3272 3688 3835 4074 4308 4706 4760 4640 4709 4520 4037 4580 4186 3961 3770 3809 3884 4090 4279 4466 4263 4064 3787 4279 4349 4462 3540 2181 1895 1824 1798 1403 1052 569 413 379 356 347 319 341 356 378 328 301 357 534 710 862 1086 978 847 768 860 885 880 629 739 634 553 512 485 461 358 162 93 69 36 31 29 28 33 69 187 239 301 434 400 303 288 250 165 59 27 30 28 33 72 119 170 164 294 419 385 535 325 140 146 214 164 212 364 410 380 360 104 54 19 0 0 0 0 0 0 0 0 0 0 0 0 0 0 0 0 0 0 0 0 0 0 0 0 0 0 0 0 0 0 0 0 0 0 0 0 0 0 0 0 0 0 0 0 0 0 0 0 0 0 0 0 0 0 0 0 0 0 0 0 0 0 0 0 0 0 0 0 0 0 0 0 nan
398 141 95 93 96 99 105 111 118 124 130 135 143 150 162 180 196 200 197 199 203 206 208 212 215 218 221 224 224 222 222 225 226 219 217 215 207 207 214 243 310 352 430 809 1255 1129 1101 1396 2188 3003 3065 3141 3575 4212 4833 5229 4854 4551 5379 5275 5160 5221 4982 4863 4988 5157 5001 5073 5062 5063 5132 4934 4582 4620 4743 4460 4452 4486 4390 4383 4635 4960 5160 4662 4581 4627 4637 4618 4432 4629 4640 4397 4234 4236 4306 4459 4271 4148 3600 3138 2272 1756 3025 3227 2865 3194 3902 3911 3915 4285 4361 4413 4511 3989 4180 4104 4045 3813 3772 3734 3932 4290 4315 4137 3912 3883 3907 4049 4223 3674 2977 2581 1997 2313 2015 1305 801 559 435 361 358 332 306 324 321 338 440 525 560 883 1158 1024 1005 963 769 843 976 663 568 572 512 566 606 549 451 329 139 65 44 31 32 30 28 38 77 202 361 375 321 270 405 600 447 204 54 20 14 15 22 43 70 109 235 388 330 251 262 154 176 219 163 208 285 533 433 253 217 123 14 5 0 0 0 0 0 0 0 0 0 0 0 0 0 0 0 0 0 0 0 0 0 0 0 0 0 0 0 0 0 0 0 0 0 0 0 0 0 0 0 0 0 0 0 0 0 0 0 0 0 0 0 0 0 0 0 0 0 0 0 0 0 0 0 0 0 0 0 0 0 0 0 0 nan
164 91 87 89 92 97 103 109 115 120 127 133 142 157 182 201 201 203 211 221 227 225 226 230 230 224 219 220 218 218 214 216 215 213 205 206 197 188 186 191 195 199 191 232 359 465 564 881 1468 1673 1688 2364 3215 4022 4843 4801 4321 4995 5077 5293 4888 5002 4820 4956 4843 4977 4831 4815 4805 4829 4933 5220 4947 4947 5274 5110 4917 4806 4714 4715 4771 4931 5167 4759 4750 4789 4887 4813 4867 4917 4895 4826 4766 4668 4573 4446 4130 3622 2852 2655 1470 1611 2656 2782 2330 2570 3344 3958 3675 3767 4010 4051 4539 4534 3853 3684 3890 4073 3550 3955 3821 4384 4303 3879 3871 3700 3654 3958 3473 3308 2882 2666 2500 2737 2293 1240 1017 873 699 425 378 343 345 378 373 558 787 859 692 1002 1100 905 1010 947 811 783 837 609 539 501 466 542 552 409 312 282 157 128 92 65 46 31 29 59 105 164 248 308 444 400 561 546 212 84 111 24 16 18 27 71 147 160 425 365 229 184 300 524 534 590 400 311 419 468 385 340 128 60 5 1 0 0 0 0 0 0 0 0 0 0 0 0 0 0 0 0 0 0 0 0 0 0 0 0 0 0 0 1 0 0 0 0 0 0 0 0 0 0 0 0 0 0 0 0 0 0 0 0 0 0 0 0 0 0 0 0 0 0 0 0 0 0 0 0 0 0 0 0 0 0 0 0 nan
89 82 83 86 90 98 104 110 116 119 125 135 153 175 199 208 206 216 230 247 257 260 262 267 264 260 236 224 219 228 226 205 207 205 196 195 191 182 174 178 180 184 180 169 167 160 250 573 957 1195 1439 1894 2429 3056 2942 2693 3457 4085 3884 4231 4284 4262 4495 4969 5418 5043 5207 4896 4771 4680 4830 4623 4505 4600 4718 4815 5114 5039 4835 4892 4936 5153 5240 5129 5032 5060 5100 4918 4902 4793 4649 4595 4557 4235 3885 3454 2894 2652 2585 1977 1378 1268 1713 2127 1609 2379 3361 3675 3663 3098 3698 4301 4432 4281 3904 3586 3825 3932 3424 3791 3859 4311 4083 3842 3725 3698 3500 3650 2915 2611 2555 2510 2739 2671 2583 1620 1263 1120 823 525 487 431 438 501 620 836 1075 1144 1001 1166 1048 947 974 950 811 672 768 564 570 579 518 446 298 301 430 432 357 263 171 155 94 52 41 109 107 181 344 420 529 435 293 159 88 52 36 23 23 31 53 82 126 130 224 147 179 346 659 671 650 475 355 375 610 605 493 353 99 16 2 1 0 0 0 0 0 0 0 0 0 0 0 0 0 0 0 0 0 0 0 0 0 0 0 0 0 0 0 0 10 27 7 1 0 0 0 0 0 0 0 0 0 0 0 0 0 0 0 0 0 0 0 0 0 0 0 0 0 0 0 0 0 0 0 0 0 0 0 0 0 0 0 0 nan
76 78 80 87 96 105 109 112 116 122 131 148 168 183 196 208 223 242 265 286 296 299 303 313 310 299 273 253 245 244 206 197 199 197 190 182 182 177 167 167 167 170 170 162 149 141 153 216 415 826 1187 1481 1577 1842 1792 1747 1594 1451 1568 2045 2640 3105 3534 4288 5204 4907 5305 5412 5489 5201 4856 4968 4843 4687 4576 4744 4954 4920 4705 4736 4995 5374 5557 5457 4966 4473 4619 5035 4926 4994 4741 4533 4664 3977 2935 2487 2077 1717 1893 1619 785 924 1141 923 861 1739 2637 2476 3146 3078 3956 3995 3679 3910 3699 3344 3732 3815 3413 3554 3758 4064 3748 3772 3454 3477 3539 3222 2870 2405 2306 2585 2658 2337 2495 1703 1508 1313 904 654 676 805 617 760 1080 864 1019 1053 1162 1180 1044 1053 972 868 702 805 868 625 665 661 359 320 287 457 518 403 496 361 392 347 162 91 75 61 75 174 232 321 368 214 114 82 53 48 32 40 43 58 74 56 94 165 170 295 446 554 866 803 662 481 459 475 425 392 292 211 52 19 2 0 0 0 0 0 0 0 0 0 0 0 0 0 0 0 0 0 0 0 0 0 0 0 0 0 0 0 0 2 69 63 3 3 0 0 0 0 0 0 0 0 0 0 0 0 0 0 0 0 0 0 0 0 0 0 0 0 0 0 0 0 0 0 0 0 0 0 0 0 0 0 0 0 nan
73 77 86 101 114 118 114 113 123 138 149 168 195 218 224 239 264 288 303 315 322 332 353 375 400 346 315 289 276 232 192 189 190 190 186 179 171 169 162 157 157 159 157 153 143 134 132 140 166 322 525 771 940 1107 1201 1190 1035 798 676 805 992 1445 1907 2784 3125 3763 4245 5200 5522 5754 4605 4539 5193 5469 5316 5048 5206 5031 4723 4628 4365 4641 5092 5225 4929 4123 4225 4824 4576 4779 5039 5143 4667 3132 2060 1543 1473 1412 1029 948 838 783 438 180 214 510 1071 1661 2387 2819 3761 3077 2712 3100 3176 3196 3273 3462 3387 3370 3651 3856 3346 3111 3407 3097 3147 2917 2777 2398 2083 2745 2614 2439 2351 1663 1860 1387 1114 932 884 1003 1075 1064 1135 941 918 971 1089 1131 998 995 856 811 737 909 1051 624 649 549 352 270 286 391 389 471 368 446 475 316 160 115 81 66 86 195 201 261 213 157 153 101 50 65 91 82 58 60 101 244 372 535 674 747 688 475 669 597 746 685 657 572 477 234 102 37 13 1 0 0 0 0 0 0 0 0 0 0 0 0 0 0 0 0 0 0 0 0 0 0 0 0 0 0 0 0 2 6 13 4 0 0 0 0 0 0 0 0 0 0 0 0 0 0 0 0 0 0 0 0 0 0 0 0 0 0 0 0 0 0 0 0 0 0 0 0 0 0 0 0 0 0 nan
72 82 104 124 132 124 115 124 137 154 172 199 235 271 281 290 304 316 326 326 342 375 431 470 460 413 355 349 292 228 192 185 182 183 181 176 170 161 154 149 149 150 148 146 141 130 123 126 128 145 237 322 358 445 567 693 759 621 514 544 871 1169 1408 1491 1489 2193 2749 4267 4355 4835 3510 3715 4612 5254 5227 4120 4325 4615 4579 4367 3176 3336 4173 4070 4014 3331 3004 3503 3766 4258 4711 4258 2909 2038 2034 1671 1467 1318 887 663 505 237 138 127 139 200 491 1737 2745 2783 2041 1911 1709 1822 2489 3021 3024 3147 3208 3218 3630 3563 2895 2927 3102 3072 2987 2941 2820 2145 2047 2633 2663 2538 2285 2052 1938 1535 1654 1324 1302 1393 1319 1234 1099 974 960 1076 1062 945 927 935 858 689 673 918 813 519 520 444 308 281 365 418 706 692 336 386 270 175 159 104 74 67 86 167 183 223 261 219 135 93 73 144 213 123 92 119 169 397 559 755 943 496 564 403 499 713 995 850 721 496 344 131 30 3 2 0 0 0 0 0 0 0 0 0 0 0 0 0 0 0 0 0 0 0 0 0 0 0 0 0 0 0 0 0 8 33 0 0 0 0 0 0 0 0 0 0 0 0 0 0 0 0 0 0 0 0 0 0 0 0 0 0 0 0 0 0 0 0 0 0 0 0 0 0 0 0 0 0 0 0 nan
72 88 114 135 141 130 140 151 166 187 192 210 248 285 308 311 306 310 323 336 365 426 474 489 502 458 439 391 260 218 194 181 177 175 174 171 167 161 155 147 141 143 142 140 136 129 118 116 117 114 112 119 108 101 105 126 188 224 244 323 522 987 1285 1427 1316 1499 1939 2596 2413 2543 1759 2746 2717 3778 3662 2399 3506 4060 3791 3412 2693 2481 3214 2943 3254 2973 2421 2405 2650 3507 3221 2553 1779 1274 2159 1912 1459 1337 388 183 120 109 117 134 152 224 563 1201 2066 2225 1084 886 1078 1341 2290 2747 2832 2806 3097 2889 3442 3372 2996 2907 3054 2806 2783 2660 2829 2147 2370 2417 2664 2057 2031 2317 2146 1776 1903 1837 1663 1686 1592 1440 1393 1284 1107 1000 940 925 941 913 866 876 803 853 685 591 568 491 366 392 413 703 933 584 471 407 388 186 177 161 114 83 151 123 258 460 553 311 156 110 117 151 180 279 255 287 181 383 468 579 492 293 359 445 444 726 940 847 642 594 328 117 10 1 0 0 0 0 0 0 0 0 0 0 0 0 0 0 0 0 0 0 0 0 0 0 0 0 0 0 0 0 0 4 2 2 0 0 0 0 0 0 0 0 0 0 0 0 0 0 0 0 0 0 0 0 0 0 0 0 0 0 0 0 0 0 0 0 0 0 0 0 0 0 0 0 0 0 0 0 nan
71 86 127 180 190 159 160 179 211 233 226 224 258 286 305 306 299 303 319 352 388 437 433 448 488 464 455 383 270 224 196 179 173 167 166 165 162 158 153 147 138 137 138 134 129 128 118 111 109 108 102 97 91 87 88 95 99 116 147 165 211 310 381 460 681 882 1202 1313 1467 1739 1137 1780 1544 2394 1713 1364 2315 2855 2961 2952 3005 1992 2531 2334 2325 2350 1682 1856 2733 3016 2461 1792 1093 1080 1627 1417 793 267 98 93 98 107 129 260 444 644 803 1215 1410 1914 1326 607 762 1518 2055 2192 2746 2761 2776 2893 2979 3200 2995 2642 2813 2845 2704 2770 2301 2143 2057 2399 2221 2116 2165 2147 2051 2084 2060 2009 1808 1725 1676 1544 1620 1490 1237 1082 993 960 947 977 884 925 919 765 621 579 581 453 318 375 594 752 561 401 321 291 305 213 192 205 199 111 183 190 427 436 348 218 104 91 139 128 212 433 450 234 189 353 559 444 408 334 304 444 446 860 926 586 550 579 202 104 3 0 0 0 0 0 0 0 0 0 0 0 0 0 0 0 0 0 0 0 0 0 0 0 0 0 0 0 0 0 0 4 2 0 0 0 0 0 0 0 0 0 0 0 0 0 0 0 0 0 0 0 0 0 0 0 0 0 0 0 0 0 0 0 0 0 0 0 0 0 0 0 0 0 0 0 0 0 nan
68 83 130 189 201 204 197 213 231 240 257 279 299 299 307 314 325 317 338 377 419 393 393 410 441 411 357 310 268 236 218 190 173 165 159 156 155 153 151 146 142 133 133 131 125 122 119 111 104 101 98 93 88 83 81 86 89 89 86 82 84 96 110 133 219 342 528 782 976 1090 960 1207 1400 1755 1315 831 890 1097 1435 1972 2154 1391 1418 1263 1341 1244 1094 1395 1630 1387 1239 791 329 486 570 426 177 87 86 91 104 158 387 896 1243 1172 796 1005 1432 1760 1742 813 670 1596 2061 2322 2740 2933 2682 3023 2938 2722 2891 2549 2658 2859 2371 1943 2003 1956 2032 2549 1780 2101 2241 2019 2074 2253 2208 2150 2052 1799 1634 1545 1394 1321 1226 1214 1270 1135 1138 1164 925 851 816 781 698 682 548 420 412 472 778 550 351 342 311 336 296 270 149 113 102 157 127 284 382 301 241 201 107 90 154 188 398 498 335 251 384 605 528 560 379 407 321 419 778 937 799 444 337 390 109 7 0 0 0 0 0 0 0 0 0 0 0 0 0 0 0 0 0 0 0 0 0 0 0 0 0 0 0 0 0 2 4 1 0 0 0 0 0 0 0 0 0 0 0 0 0 0 0 0 0 0 0 0 0 0 0 0 0 0 0 0 0 0 0 0 0 0 0 0 0 0 0 0 0 0 0 0 0 0 nan
65 83 123 187 243 267 264 278 259 246 269 286 302 299 300 315 332 317 345 414 443 394 366 351 356 342 332 338 265 242 265 220 186 163 157 152 147 144 146 143 140 134 127 127 124 119 115 111 106 101 95 91 86 83 78 81 82 82 79 76 72 71 74 75 80 92 126 220 286 226 328 552 466 480 405 197 133 172 285 502 684 452 297 238 409 281 304 316 233 193 136 99 82 90 98 96 86 85 101 166 316 565 1005 1428 1173 1135 593 446 568 844 1434 721 658 1290 1977 2134 2681 2834 2768 2961 2932 2678 2604 2373 2427 2593 1886 1807 1714 1724 2143 2314 2179 1819 2417 2135 2179 2271 2174 2085 2047 1857 1758 1647 1474 1357 1278 1288 1274 1229 1193 1078 924 836 813 823 834 691 554 449 419 487 669 555 450 444 472 339 184 198 127 94 86 146 176 215 356 444 467 251 114 110 268 318 428 333 290 430 543 558 511 489 402 351 392 626 737 801 740 351 123 95 14 1 0 0 0 0 0 0 0 0 0 0 0 0 0 0 0 0 0 0 0 0 0 0 0 0 0 0 0 0 4 23 53 2 0 0 0 0 0 0 0 0 0 0 0 0 0 0 0 0 0 0 0 0 0 0 0 0 0 0 0 0 0 0 0 0 0 0 0 0 0 0 0 0 0 0 0 0 0 0 nan
60 77 113 165 219 258 280 284 248 232 255 269 261 261 257 285 304 316 366 457 469 398 346 318 307 304 295 280 266 290 279 225 189 176 167 157 147 139 136 137 136 132 127 123 122 118 115 111 105 101 96 91 87 82 78 75 75 75 73 71 67 65 64 62 59 62 68 79 88 79 81 87 91 92 90 89 81 72 64 62 64 62 64 70 59 48 50 59 64 65 64 64 71 176 327 367 205 106 222 506 745 1159 1369 1024 995 699 373 248 246 548 1140 663 565 1098 1790 2377 2748 2642 2731 2925 2742 2721 2417 2130 2268 2160 1671 1583 1506 1760 1886 1974 2369 1880 2283 2248 2121 2110 2051 1984 1962 1781 1637 1638 1489 1414 1328 1259 1206 1283 1227 1061 856 934 1119 873 871 694 584 540 510 609 663 865 590 666 458 199 135 167 114 105 102 160 201 272 457 861 593 251 162 313 361 388 407 341 404 497 563 561 579 543 385 413 397 392 543 735 542 346 124 27 3 0 0 0 0 0 0 0 0 0 0 0 0 0 0 0 0 0 0 0 0 0 0 0 0 0 2 0 0 0 12 31 12 0 0 0 0 0 0 0 0 0 0 0 0 0 0 0 0 0 0 0 0 0 0 0 0 0 0 0 0 0 0 0 0 0 0 0 0 0 0 0 0 0 0 0 0 0 0 0 nan
53 69 100 143 195 250 251 236 213 201 202 194 200 226 225 250 284 319 401 451 425 379 343 310 286 279 262 250 289 284 236 217 234 240 206 186 159 147 142 134 129 126 125 119 118 115 113 109 105 99 94 90 87 82 77 73 70 69 67 65 62 60 57 56 52 53 53 55 59 63 60 56 55 58 64 68 65 57 48 39 37 40 42 52 43 41 43 52 82 87 78 82 121 212 425 677 316 191 522 958 1379 1598 1592 895 542 390 340 342 255 506 912 493 586 1162 1599 2545 2652 2562 2630 2720 2710 2624 2218 1846 2183 2202 2106 1953 1792 1687 1777 2092 2121 2266 2449 2384 2086 2122 2094 1984 1729 1535 1433 1403 1334 1371 1310 1257 1228 1248 1191 1030 870 955 1033 756 816 721 638 548 516 954 961 1070 811 714 239 156 267 444 359 305 229 175 223 540 794 1087 514 346 291 252 248 298 276 272 328 472 466 524 502 441 580 570 434 517 437 455 388 219 47 6 0 0 0 0 0 0 0 0 0 0 0 0 0 0 0 0 0 0 0 0 0 0 0 0 0 0 3 0 2 2 19 3 0 0 0 0 0 0 0 0 0 0 0 0 0 0 0 0 0 0 0 0 0 0 0 0 0 0 0 0 0 0 0 0 0 0 0 0 0 0 0 0 0 0 0 0 0 0 0 0 nan
44 59 87 137 192 243 227 191 175 149 134 145 165 186 209 241 288 374 479 447 404 365 336 314 295 277 273 280 243 260 290 318 341 295 236 203 171 158 149 138 128 121 118 117 116 112 110 107 101 95 92 87 85 80 77 73 70 65 62 60 58 56 54 52 49 48 45 47 48 51 49 46 43 45 50 52 51 46 40 33 29 32 59 99 96 97 99 165 327 424 456 338 123 102 211 364 210 409 847 1261 1452 1646 1681 692 287 632 701 541 418 852 699 463 622 1104 1545 2354 2384 2435 2425 2520 2453 2491 2159 1932 2231 2261 2353 1952 1533 1656 2094 2391 2333 2427 2273 2251 2099 2134 2089 1942 1794 1434 1213 1284 1186 1298 1257 1162 1186 1131 1035 1011 841 747 733 610 706 656 621 553 522 881 941 917 728 399 359 415 472 652 436 368 297 196 305 627 1024 1032 568 371 246 216 250 247 293 307 415 607 542 559 456 661 689 548 587 704 503 443 199 123 9 1 0 0 0 0 0 0 0 0 0 0 0 0 0 0 0 0 0 0 0 0 0 0 0 0 0 0 0 0 0 1 4 0 0 0 0 0 0 0 0 0 0 0 0 0 1 0 0 0 0 0 0 0 0 0 0 0 0 0 0 0 0 0 0 0 0 0 0 0 0 0 0 0 0 0 0 0 0 0 0 0 nan
34 49 82 130 179 225 229 166 141 114 139 159 160 188 214 250 330 527 525 442 396 361 338 322 297 281 253 226 253 362 343 401 367 273 224 207 183 172 155 145 135 126 116 111 112 109 106 103 101 96 91 86 83 79 76 72 68 63 60 57 55 52 51 48 47 45 41 41 40 43 40 38 36 36 39 40 40 37 33 29 26 73 258 280 341 582 762 806 859 917 879 715 309 158 239 243 416 1036 1188 1332 1262 1798 1220 345 244 502 663 400 440 1110 649 464 567 1019 2087 2461 2246 2162 2297 2355 2343 2422 2232 1950 2173 2108 2094 1962 1458 1906 2194 2141 2205 2328 2235 2109 2052 2111 2108 1917 1718 1558 1283 1182 964 1077 1153 1035 1041 1017 919 992 875 743 771 701 598 489 470 383 483 727 770 603 401 385 484 537 425 370 286 245 321 384 621 634 772 732 446 308 179 267 380 327 285 390 462 532 599 737 673 669 708 702 776 668 560 438 258 90 10 1 0 0 0 0 0 0 0 0 0 0 0 0 0 1 0 0 0 0 0 0 0 0 0 0 0 0 0 0 0 0 0 0 0 0 0 0 0 0 0 0 0 0 0 0 1 0 0 0 0 0 0 0 0 0 0 0 0 0 0 0 0 0 0 0 0 0 0 0 0 0 0 0 0 0 0 0 0 0 0 0 nan
22 47 84 127 169 200 179 124 97 98 189 194 176 210 242 292 466 604 519 457 407 365 352 318 273 248 231 230 278 404 378 441 406 309 272 246 208 199 176 167 161 144 126 122 116 106 103 100 94 93 91 86 82 78 74 69 67 66 69 64 61 55 51 46 44 42 40 38 36 36 34 32 30 30 31 31 31 31 28 25 27 89 405 489 398 696 1240 1512 1532 1298 1193 958 598 294 373 632 1045 1627 1570 1322 1560 1054 382 208 228 303 470 303 303 592 295 266 493 1434 2357 2119 2031 2015 2167 2068 2063 2089 2202 2124 2055 2137 2173 2103 1849 2087 2111 1996 2119 2304 2067 2056 2015 2125 2029 1846 1698 1578 1422 1302 868 910 1150 860 749 800 870 960 861 740 808 863 930 645 537 352 610 658 361 403 585 788 637 328 286 375 365 450 612 529 626 755 661 626 526 342 252 261 384 334 322 539 456 501 699 870 642 530 707 733 656 607 445 240 86 13 11 1 0 0 0 0 0 0 0 0 0 0 0 0 0 0 0 0 0 0 0 0 0 0 0 0 0 0 0 0 0 0 0 0 0 0 0 0 0 0 0 0 0 0 0 0 0 0 0 0 0 0 0 0 0 0 0 0 0 0 0 0 0 0 0 0 0 0 0 0 0 0 0 0 0 0 0 0 0 0 0 0 nan
27 56 90 126 150 148 116 78 62 79 123 163 215 251 298 459 657 572 499 447 402 385 421 379 283 251 244 248 291 405 383 437 435 381 326 279 266 241 204 209 212 181 146 138 145 142 129 118 99 94 92 88 83 80 77 73 74 80 85 79 71 64 58 52 47 43 70 82 39 37 40 66 51 28 29 28 26 25 23 21 23 48 92 151 219 295 488 677 731 630 748 839 955 593 732 1008 1250 1402 1417 1607 1533 628 215 259 237 282 371 345 333 209 172 226 1014 1940 1965 1929 1877 1862 2024 1939 1981 1889 2100 2035 1979 2213 2094 1992 1984 1967 1989 2077 2137 2086 1965 2035 2063 2051 1959 1855 1507 1416 1409 1284 874 859 1033 778 640 716 786 887 790 677 579 691 812 516 401 291 475 333 195 384 698 606 496 348 608 870 682 568 349 356 546 597 406 568 378 276 258 244 388 497 431 575 493 499 769 795 588 546 760 530 365 308 201 50 14 4 2 0 0 0 0 0 9 99 55 6 0 0 0 0 0 0 0 0 0 0 0 -0 -0 0 0 0 0 0 0 0 0 0 0 0 0 0 0 0 0 0 0 0 0 0 0 0 0 0 0 0 0 0 0 0 0 0 0 0 0 0 0 0 0 0 0 0 0 0 0 0 0 0 0 0 0 0 0 0 0 0 0 0 nan
45 70 95 114 115 97 68 45 49 92 164 220 258 335 468 773 667 528 476 438 438 446 451 430 391 305 263 273 308 405 422 435 462 431 342 314 317 283 245 260 246 197 188 237 299 278 220 163 156 131 141 161 167 164 164 149 115 113 99 89 86 85 86 80 74 78 119 119 81 64 75 128 70 26 27 28 21 19 20 19 18 19 17 18 17 14 12 20 29 32 80 216 345 375 444 760 1199 1076 1235 1332 899 245 233 261 473 412 400 376 364 197 156 334 1311 1804 1720 1763 1711 1622 1821 1800 1939 1867 1951 1985 1949 2058 1969 1943 1834 1724 1969 2050 1995 2025 1812 1926 1996 1984 1776 1583 1551 1218 1114 1159 990 709 717 782 754 719 668 755 735 540 409 540 586 308 233 394 443 317 271 412 509 565 431 393 614 724 481 430 623 778 584 224 218 356 335 398 355 383 437 549 476 465 423 404 611 632 785 595 657 508 263 102 75 8 1 0 0 0 0 0 0 30 121 229 278 49 0 0 0 0 0 0 0 0 0 0 0 0 1 0 0 0 0 0 0 0 0 0 0 0 0 0 0 0 0 0 0 0 0 0 0 0 0 0 0 0 0 0 0 0 0 0 0 0 0 0 0 0 0 0 0 0 0 0 0 0 0 0 0 0 0 0 0 0 0 0 0 0 nan
52 66 79 81 69 45 25 28 57 129 240 309 413 428 617 781 635 506 459 439 474 495 457 419 404 342 293 305 325 385 459 477 479 436 373 351 343 327 297 317 285 280 355 365 347 317 293 297 319 311 256 244 274 293 316 364 336 213 120 120 120 118 125 142 189 212 171 197 175 132 147 173 63 25 26 27 16 15 17 17 16 18 15 14 10 8 6 9 12 16 27 27 32 78 359 706 944 868 1015 726 334 162 200 258 381 494 482 334 257 291 210 546 1528 1430 1463 1569 1693 1600 1782 1627 1850 1885 1783 1912 1965 1922 1806 1770 1804 1838 1959 2036 1984 1947 1809 1967 1962 1931 1658 1260 1211 1097 1111 918 822 751 921 1099 808 799 621 650 543 428 344 377 361 286 198 290 271 382 445 231 252 624 457 518 647 613 474 383 649 780 456 178 291 494 496 461 421 371 391 412 430 377 406 328 439 604 505 340 280 297 147 47 11 1 0 0 0 0 0 0 11 185 683 811 262 11 0 0 0 0 0 0 0 0 1 0 0 0 6 3 0 0 0 0 0 0 0 0 0 0 0 0 0 0 0 0 0 0 0 0 0 0 0 0 0 0 0 0 0 0 0 0 0 0 0 0 0 0 0 0 0 0 0 0 0 0 0 0 0 0 0 0 0 0 0 0 0 0 nan
38 45 42 33 35 16 10 30 72 132 202 276 423 424 535 677 564 448 462 474 478 476 465 430 404 351 334 338 366 403 462 498 483 433 399 395 379 358 362 408 378 354 355 381 360 326 324 333 334 317 286 311 289 261 303 311 259 195 203 217 184 197 252 315 329 316 316 274 236 206 195 160 59 26 24 22 16 14 13 14 14 17 16 13 10 7 7 11 17 29 43 57 89 208 400 855 915 899 839 364 211 197 314 342 401 265 363 239 258 363 224 719 1304 1437 1311 1327 1766 1646 1506 1487 1697 1893 1681 1687 1830 1880 1711 1480 1590 1736 1901 2040 1980 1821 1808 1788 1860 1668 1336 1166 1074 1058 1178 1096 815 762 1031 1057 874 781 668 612 556 427 301 257 261 259 166 151 152 309 384 321 352 373 267 337 439 531 598 422 407 450 501 295 380 418 430 554 522 331 263 317 383 268 258 272 357 662 419 165 77 59 15 8 2 0 0 0 0 0 0 6 162 1008 1907 1439 545 17 0 0 0 2 0 0 15 10 12 1 0 0 0 0 0 0 0 0 0 0 0 0 0 0 0 0 0 0 0 0 0 0 0 0 0 0 0 0 0 0 0 0 0 0 0 0 0 0 0 0 0 0 0 0 0 0 0 0 0 0 0 0 0 0 0 0 0 0 0 0 0 0 nan
11 11 5 5 23 7 9 31 68 113 160 246 347 320 467 581 432 327 401 416 471 462 425 424 417 379 367 373 376 423 465 511 473 414 411 439 447 433 446 415 350 353 382 464 411 370 359 334 362 351 364 385 331 289 272 278 225 236 289 299 330 404 430 429 365 324 315 277 221 209 163 125 53 28 23 19 17 14 12 11 12 12 17 13 11 7 9 24 46 63 91 137 253 427 701 940 1002 1042 538 305 195 256 360 410 543 198 260 126 145 179 203 1022 1258 1186 1196 1415 1778 1421 1389 1402 1845 1750 1906 1690 1799 1579 1898 1445 1439 1660 1793 1845 1900 1802 1669 1628 1733 1588 1514 1403 1364 1157 1011 887 725 623 636 770 734 673 537 575 694 479 402 354 375 377 204 138 142 318 676 437 397 369 337 398 405 552 576 498 342 203 166 215 221 324 436 421 346 233 225 233 229 239 337 323 337 500 375 271 112 48 6 0 0 0 0 0 0 0 0 34 338 1409 2236 1696 380 1 0 0 0 0 0 1 31 14 4 0 0 0 0 0 0 0 0 0 0 0 0 0 0 0 0 0 0 0 0 0 0 0 0 0 0 0 0 0 0 0 0 0 0 0 0 0 0 0 0 0 0 0 0 0 0 0 0 0 0 0 0 0 0 0 0 0 0 0 0 0 0 0 nan
